# .PCD v0.7 - Point Cloud Data file format
VERSION 0.7
FIELDS x y z
SIZE 4 4 4
TYPE F F F
COUNT 1 1 1
WIDTH 1287
HEIGHT 1
VIEWPOINT 0 0 0 1 0 0 0
POINTS 1287
DATA ascii
-0.022671079 0.0070135174 0.04721887
-0.020398907 0.0069523305 0.047343925
-0.018585349 0.0071286024 0.047413744
-0.016867228 0.0073438212 0.04734157
-0.014676114 0.0070682019 0.047180686
-0.012646154 0.0069276467 0.047158103
-0.010939404 0.0069275028 0.047156394
-0.0092244335 0.0069483984 0.047172286
-0.0072216988 0.0071168868 0.047017086
-0.0049939938 0.0071016736 0.04706797
-0.0030551897 0.0070483601 0.047231633
-0.0010396248 0.0070858318 0.047171202
0.00098719844 0.0069752634 0.047224488
0.0028447057 0.0069844648 0.047169015
0.0047900528 0.0070799235 0.04716713
0.0069584921 0.0071704178 0.04709778
0.0088644503 0.0070562642 0.047221381
0.010805249 0.0069872714 0.04713355
0.013164544 0.0069479556 0.047286496
0.015271181 0.0070736394 0.047119208
0.017521985 0.0073411763 0.046861753
0.019377125 0.0071182759 0.046833135
0.021058567 0.0069499575 0.046859473
0.023112645 0.0070118634 0.046893977
0.025431909 0.0069908053 0.046856806
0.027241223 0.0070115961 0.046855375
0.029442567 0.0070229955 0.046854347
0.031583257 0.0069869803 0.046971753
0.033282876 0.0071638576 0.046900868
0.034959335 0.0069802105 0.046693865
0.038462758 0.0059146117 0.040390484
0.041368842 0.0068897828 0.04730472
0.018308444 0.0065078493 0.039806366
0.034182131 0.0073602563 0.042112786
0.029922193 0.0066590309 0.041862179
0.030982276 0.007143511 0.039108526
0.039270986 0.0076753008 0.043809846
0.012077829 0.0075808777 0.034777977
0.055828072 0.0066650268 0.046887845
0.057028443 0.0069617759 0.047310438
-0.05692206 0.0089843664 0.04696209
-0.055673659 0.0093703587 0.046583623
-0.028205816 -0.0013389386 0.03791545
-0.038917381 0.0043952898 0.0441764
-0.050706208 0.00042473836 0.041620035
-0.043265361 0.0022065951 0.041211803
-0.034721639 0.0043362137 0.043649416
-0.042743783 0.0089692054 0.047207061
-0.041514009 0.0090179499 0.04675781
0.00031548552 0.0022975667 0.02359215
-0.035104062 0.0088832313 0.047143511
-0.032723039 0.0090064052 0.047480427
-0.0307978 0.0089707859 0.047478598
-0.028773122 0.0095141921 0.047349364
-0.026398852 0.0091287782 0.047544464
-0.02448599 0.0091626672 0.047542199
-0.022577606 0.0090127159 0.04734543
-0.020367792 0.008829806 0.047470234
-0.01853629 0.0093782134 0.047468923
-0.016709547 0.0093414728 0.047466934
-0.014645023 0.0091903228 0.04710323
-0.012598834 0.0090003675 0.047220182
-0.010862602 0.0090019535 0.04721836
-0.0090128956 0.00916503 0.047077779
-0.0068696057 0.0092314202 0.047096316
-0.0048870645 0.0090152416 0.047126919
-0.0029735628 0.0089971479 0.047186662
-0.0010171535 0.0093018906 0.047172867
0.0010116695 0.009211746 0.047319047
0.0028608344 0.0091936439 0.047108226
0.0048336438 0.0089802714 0.047261298
0.0070078205 0.0091905287 0.047217254
0.0088521792 0.0090923579 0.047257356
0.011233047 0.0092818588 0.047062811
0.013295409 0.0089833206 0.047286432
0.015298959 0.0090126237 0.047209982
0.017202891 0.0094957827 0.047035396
0.019413114 0.0093736984 0.046825331
0.021383211 0.0091113439 0.046797544
0.023240119 0.0090095829 0.046858087
0.02547884 0.0091670072 0.046811059
0.027395979 0.0091332188 0.046809033
0.029443569 0.0095106941 0.046854258
0.03144452 0.009072382 0.047062244
0.032713331 0.0091577647 0.046787307
0.035027929 0.0088572428 0.046625841
0.037245154 0.0092118997 0.046814036
0.041358985 0.0089361882 0.046875801
0.024804067 0.005646843 0.042813312
0.036969777 0.0071779401 0.044607289
0.037479226 0.0053617512 0.042215187
0.048397142 0.0056634159 0.042577367
0.051608667 0.0073851934 0.045036737
-0.0091229081 -0.0081083504 0.037318449
0.055716157 0.0091251712 0.046825111
0.056933224 0.0088818558 0.047049318
-0.057011459 0.0110046 0.046966251
-0.055807844 0.010784036 0.046817712
-0.020862019 -0.0073523107 0.039812934
-0.050531536 0.010173947 0.046638608
-0.048602581 0.010378793 0.046431661
-0.042559735 0.010853805 0.047577914
-0.041513622 0.011139616 0.046757549
-0.036114126 0.010992249 0.046207488
-0.03510499 0.010594822 0.047159068
-0.032724272 0.010704294 0.047480386
-0.030723829 0.011077574 0.047478896
-0.028773785 0.011173669 0.047349125
-0.026484352 0.011173993 0.047475081
-0.02460306 0.011129051 0.047473293
-0.022480059 0.010896737 0.047424972
-0.020395726 0.010813918 0.047528744
-0.018536737 0.011037162 0.047468923
-0.016710043 0.010993859 0.047467154
-0.014752877 0.01108498 0.047225036
-0.013045751 0.011026673 0.047050476
-0.010867938 0.011030165 0.047277212
-0.0089734374 0.011084842 0.047206666
-0.0069701523 0.010989378 0.047153097
-0.0047375448 0.010944204 0.047041506
-0.0028633773 0.010796346 0.047124945
-0.0010238839 0.011216551 0.047148556
0.00098917377 0.011294949 0.047271382
0.0030119768 0.011108369 0.047269188
0.0049542687 0.011048478 0.047298823
0.0069217933 0.01093325 0.047142051
0.0087747872 0.010912639 0.047175396
0.010940475 0.011210573 0.047099855
0.013317585 0.010957995 0.047170639
0.015088275 0.010988466 0.04727111
0.017219953 0.011135593 0.047035605
0.01941362 0.011031797 0.046825211
0.021258455 0.011075567 0.046823464
0.023270119 0.010899416 0.046843767
0.025489341 0.011123548 0.046820741
0.027374607 0.011168445 0.046818893
0.029240817 0.011087051 0.046903513
0.031127436 0.0110993 0.047068007
0.032931548 0.011180779 0.046814304
0.03502737 0.010566095 0.046625782
0.036840856 0.010928601 0.046876609
0.041233845 0.011095013 0.047060467
0.042541727 0.010825291 0.046994612
0.0440332 0.010645464 0.046035469
0.047140762 0.010157414 0.046518236
0.049291253 0.0104573 0.046215892
0.051753979 0.010825778 0.047564786
0.052688718 0.010353817 0.046573728
0.055791479 0.010879274 0.046900637
0.057145592 0.011044398 0.047133952
-0.056962229 0.013054237 0.047004219
-0.055673063 0.012677275 0.046584338
-0.053117257 0.012893724 0.046961706
-0.050797313 0.013189453 0.046983898
-0.048969291 0.013262004 0.047335178
-0.047013 0.013134073 0.046525329
-0.04518953 0.013274384 0.047190052
-0.043028306 0.012935456 0.047479197
-0.041513726 0.013261243 0.046757624
-0.036114126 0.012562425 0.046207488
-0.035140723 0.012929121 0.047150034
-0.032725744 0.012402507 0.047480386
-0.030819535 0.012960048 0.047478676
-0.028774746 0.012833348 0.04734911
-0.026485484 0.012854394 0.047475062
-0.024604023 0.012802503 0.047473293
-0.02256527 0.012959979 0.047417652
-0.020310901 0.012987823 0.047537804
-0.018448167 0.013003197 0.047535643
-0.016710252 0.012646513 0.047466874
-0.014765948 0.012710335 0.04722495
-0.012820138 0.013016773 0.047215514
-0.011026075 0.013008188 0.047122054
-0.0090053529 0.012847304 0.047119819
-0.0070213079 0.01287876 0.047183007
-0.005165922 0.01291825 0.047212083
-0.0031393503 0.013083696 0.047211517
-0.0010239535 0.012820466 0.047148526
0.00098407757 0.012893923 0.047271144
0.0028980849 0.012902874 0.047180798
0.0047464161 0.013160099 0.047320809
0.0068617761 0.012836431 0.047170475
0.0086711347 0.012867449 0.047197711
0.011038959 0.012943866 0.047137
0.013337226 0.012926149 0.047177855
0.015183261 0.012845105 0.047135018
0.017237127 0.012777687 0.047035784
0.019427381 0.013005168 0.046817079
0.021294311 0.012989861 0.046815112
0.023365611 0.01294669 0.046829056
0.025490403 0.012796151 0.046820682
0.027061716 0.012848729 0.046874315
0.028918602 0.012733581 0.046854883
0.031007439 0.012825496 0.046816111
0.032931071 0.012877729 0.046814203
0.035076212 0.012978535 0.046577118
0.036958575 0.012741148 0.046579983
0.04123278 0.013148407 0.047085077
0.042827293 0.013147974 0.047407988
0.045239884 0.013257392 0.047076941
0.047217097 0.01318965 0.04645538
0.048968673 0.013262233 0.047334459
0.050948739 0.013129483 0.046834372
0.052519687 0.012923623 0.04667009
0.055716157 0.012966919 0.046825111
0.057036951 0.012974225 0.047036096
-0.056969017 0.014991648 0.046911988
-0.055807844 0.014801945 0.046866506
0.016066477 0.032864925 0.033141635
0.018891007 0.032792162 0.032732509
-0.014211744 0.023462579 0.040415555
0.024040945 0.032974645 0.032843843
0.0265975 0.032867655 0.032512605
0.028522013 0.033081621 0.032742798
-0.036114126 0.014917688 0.046207488
-0.034949452 0.015177093 0.04706654
-0.032873977 0.014792094 0.047425497
-0.031198472 0.015094868 0.047430933
-0.029091129 0.015111571 0.047222439
-0.027066618 0.014789563 0.047348365
-0.025255881 0.014746014 0.047347039
-0.022860868 0.015099425 0.047293741
-0.020401187 0.015158553 0.04734385
-0.01862745 0.015113223 0.047342554
-0.016746366 0.01488159 0.047419645
-0.014753063 0.015013714 0.047276061
-0.012735374 0.015035256 0.047076352
-0.010886874 0.015060553 0.04710957
-0.0091571147 0.014882673 0.047029469
-0.0069964943 0.014975027 0.047106236
-0.004989007 0.015093097 0.04722834
-0.0031382232 0.015196379 0.047102794
-0.0010554557 0.014980318 0.047127962
0.00096469105 0.014957039 0.047235351
0.0029423959 0.014869827 0.047097523
0.0048240721 0.015108963 0.047168553
0.0068838526 0.015022178 0.047057409
0.0088830292 0.014914803 0.047140371
0.011032833 0.014946337 0.047260385
0.013233156 0.015135889 0.047215983
0.015259407 0.015010986 0.047026079
0.017315745 0.014870516 0.046984345
0.019284509 0.015107602 0.046860531
0.021061175 0.015152863 0.046859175
0.023114717 0.015124897 0.046893775
0.02542448 0.01479324 0.04685685
0.026959032 0.014898187 0.046905201
0.029000258 0.014848558 0.046891771
0.031163424 0.015058058 0.046838798
0.033043128 0.015052179 0.046837162
0.034805931 0.015339002 0.04685092
0.036977004 0.014961582 0.046805911
0.053020127 0.03141569 0.030115936
-0.056499168 0.036199808 0.032521993
-0.053880885 0.036261626 0.033046812
-0.050692003 0.036294825 0.033195626
-0.049099762 0.036246095 0.03290239
-0.047086772 0.036274333 0.033158194
0.055829599 0.014806112 0.046986766
0.057032049 0.01489081 0.047034033
-0.057049382 0.017016757 0.04704427
-0.055673063 0.017086407 0.046584338
-0.036114126 0.017272953 0.046207488
-0.034864105 0.017007384 0.047365069
-0.03312704 0.01754423 0.047344327
-0.031484924 0.0173623 0.047479134
-0.029112095 0.017113661 0.047324583
-0.027337357 0.016956862 0.047543496
-0.025274349 0.017153934 0.047575869
-0.023070373 0.017195953 0.047346026
-0.020776831 0.017049387 0.047537267
-0.018531462 0.017078483 0.047468167
-0.01670601 0.01701206 0.047466438
-0.014792377 0.017270124 0.04722444
-0.012901507 0.017058548 0.047171935
-0.01087454 0.017151617 0.047282707
-0.0089162504 0.017006313 0.047066674
-0.0069436734 0.016994208 0.047230169
-0.0050451756 0.017084489 0.047188878
-0.0029950275 0.017086465 0.047082212
-0.00083603361 0.017213341 0.047177181
0.0012591728 0.016892694 0.047270369
0.0029067439 0.017038256 0.047327511
0.0046393038 0.017082915 0.047179352
0.0067858999 0.017052311 0.047218341
0.0087908683 0.017015243 0.047182869
0.011121509 0.017046606 0.047099639
0.013396418 0.017186139 0.04710884
0.015142654 0.017203167 0.047214247
0.017010059 0.016916733 0.047254007
0.019407719 0.017070133 0.046825331
0.021251312 0.017137239 0.046823561
0.02324374 0.017239345 0.046857715
0.025235161 0.016964426 0.046876848
0.026523292 0.01692396 0.046791285
0.028971827 0.017033948 0.046840657
0.030987879 0.017283831 0.046816312
0.03290984 0.017353594 0.046814483
0.034847558 0.017424196 0.046812557
0.036960758 0.017014401 0.046749011
0.055716157 0.016808666 0.046825111
0.056935061 0.016988909 0.047093384
-0.056966472 0.018914601 0.047084704
-0.05580847 0.018988244 0.046649992
-0.036114126 0.018843127 0.046207488
-0.035176516 0.018637102 0.047266506
-0.033419024 0.019136345 0.047481041
-0.031485133 0.019058427 0.047479153
-0.029269375 0.018965695 0.047349438
-0.027138989 0.018905347 0.04747548
-0.025437355 0.019135796 0.047408555
-0.023231644 0.019038951 0.047424521
-0.021002024 0.018960575 0.047576595
-0.018532258 0.018736189 0.047468167
-0.016672 0.018979046 0.047526181
-0.014805657 0.018901411 0.04722419
-0.01281417 0.018948447 0.047136009
-0.010772258 0.018960057 0.047120631
-0.0088414755 0.018845122 0.047280006
-0.0069505372 0.019112634 0.047134597
-0.0051208786 0.018861581 0.047128379
-0.0032215333 0.018907482 0.047082953
-0.00088655559 0.018957924 0.047228321
0.0010170809 0.018979285 0.047190983
0.0028999269 0.018993517 0.047181036
0.0047068996 0.01882847 0.047266394
0.0069012013 0.018923488 0.047322918
0.0086501287 0.019211067 0.047197685
0.0109132 0.018841932 0.047099963
0.013320155 0.01899967 0.047170509
0.015175259 0.018989399 0.047134779
0.017132606 0.018978609 0.04717385
0.019408664 0.018727019 0.046825271
0.021252444 0.018800866 0.046823483
0.022988698 0.018747067 0.046907645
0.024902739 0.019067794 0.046813264
0.026806295 0.019078419 0.046811268
0.028905086 0.018901601 0.046855003
0.030988019 0.01897192 0.046816211
0.032910161 0.019048801 0.046814304
0.034848135 0.019126624 0.046812456
0.036945648 0.018943077 0.04675559
0.055829979 0.018707843 0.046770357
0.056989934 0.019061476 0.047018506
-0.056989618 0.020869473 0.046935182
-0.055673063 0.020944396 0.046584338
-0.036114126 0.021198392 0.046207488
-0.035257503 0.020725738 0.047386646
-0.033419661 0.020840272 0.047481041
-0.03148558 0.02075509 0.047479134
-0.029269516 0.020626964 0.047349423
-0.027138969 0.020587819 0.04747548
-0.025264949 0.021118954 0.047473889
-0.023191139 0.02092278 0.047295913
-0.020755112 0.020755012 0.047536105
-0.018731428 0.020975942 0.047573186
-0.016713044 0.020916006 0.047466896
-0.014808739 0.020734148 0.047239851
-0.012993988 0.020858509 0.047051109
-0.010873716 0.02086723 0.047048837
-0.0088075399 0.020909254 0.047212638
-0.0069638989 0.021123972 0.047152918
-0.0050803721 0.020756941 0.047276389
-0.0031699711 0.020794608 0.047209904
-0.0010211702 0.020851338 0.047332752
0.0011628865 0.020948989 0.047182597
0.002856327 0.020970291 0.047065176
0.0046547651 0.020787235 0.047118485
0.0067668669 0.020839637 0.047167934
0.0091096126 0.021048898 0.047323596
0.011075556 0.020856604 0.047090225
0.013289338 0.020806504 0.047256976
0.01507793 0.020909797 0.047270797
0.017127061 0.020950589 0.047166873
0.019394107 0.020776596 0.046818554
0.021253735 0.020795118 0.046816632
0.02302812 0.020654997 0.046879515
0.024801007 0.021023344 0.046821199
0.026679527 0.021108285 0.046819352
0.028775657 0.020843817 0.046823919
0.030988356 0.020660572 0.046816111
0.032910734 0.020744585 0.046814226
0.034848958 0.020829629 0.046812356
0.03701777 0.020822166 0.04679437
0.055716157 0.020650415 0.046825111
0.057136159 0.020899691 0.047062099
-0.056941789 0.02299677 0.046947211
-0.055809289 0.022524074 0.046955578
-0.036090683 0.023017799 0.046727818
-0.035163682 0.023060931 0.047232248
-0.033422243 0.023021776 0.047431529
-0.031538773 0.022998774 0.047429837
-0.029234733 0.022741746 0.047221534
-0.027027816 0.022873765 0.047422316
-0.02525457 0.023010898 0.04734683
-0.022993069 0.022914469 0.047218889
-0.020871019 0.023064587 0.047311649
-0.018847203 0.023119329 0.047468394
-0.016732872 0.023005763 0.047418382
-0.014810887 0.022922019 0.047188316
-0.012849093 0.023085894 0.047238342
-0.011063695 0.022816606 0.047030509
-0.0089344187 0.022993203 0.047154456
-0.0069965683 0.022958303 0.047106057
-0.0049725263 0.022850098 0.047092985
-0.0030639274 0.022932142 0.047041755
-0.00075627229 0.022977047 0.047186814
0.0012878103 0.022956971 0.047175251
0.0029874954 0.023110781 0.047224328
0.0046900725 0.022883143 0.047222864
0.0068027824 0.022908384 0.047214568
0.0090291295 0.02292618 0.047219194
0.011134129 0.022815283 0.047044858
0.013125096 0.023115173 0.047113016
0.015178031 0.023049874 0.047060404
0.017079264 0.022960443 0.047160745
0.019424176 0.023055583 0.046830263
0.020737639 0.023029586 0.04690963
0.022766393 0.022863373 0.046894275
0.024906479 0.02293333 0.046857238
0.026709683 0.023002222 0.046855822
0.029000333 0.023001185 0.04689151
0.031123959 0.022674348 0.046853408
0.032960057 0.022742711 0.046851963
0.034856405 0.023018954 0.046836853
0.037046682 0.022994796 0.046848752
0.055830799 0.022511106 0.047075942
0.057016172 0.02287297 0.046989366
-0.056901306 0.024969904 0.046954919
-0.055673063 0.024802387 0.046584338
-0.036114335 0.025123956 0.046208441
-0.035051972 0.025415361 0.047213346
-0.033260807 0.025250077 0.047347128
-0.031377688 0.025019452 0.047345698
-0.029270254 0.024739146 0.047349423
-0.027155232 0.025104498 0.047475718
-0.025265088 0.025004342 0.04747393
-0.022823226 0.025106629 0.047215801
-0.020753991 0.025043568 0.047285911
-0.018785313 0.025521189 0.047338903
-0.016980857 0.025296822 0.047337532
-0.014854631 0.025124788 0.047212742
-0.012982558 0.024927905 0.047140718
-0.010786087 0.024977723 0.047190532
-0.0088300286 0.024788743 0.047192156
-0.0069642365 0.024859041 0.047152828
-0.0049782619 0.024836127 0.047057703
-0.0030643584 0.025047302 0.047165956
-0.00098670332 0.025114387 0.04708989
0.00096397562 0.025076013 0.047129553
0.0027180212 0.025077343 0.047127843
0.0044321241 0.025046915 0.047158729
0.006640017 0.024909986 0.047207545
0.0088147353 0.024712594 0.047321193
0.011027232 0.024872236 0.047110163
0.012968622 0.02524773 0.04701896
0.015227236 0.025110722 0.047079504
0.017662093 0.025268957 0.046838194
0.01891738 0.025224326 0.046965659
0.020257875 0.025492996 0.046836704
0.022589197 0.024939081 0.046879172
0.024676576 0.025019705 0.046834469
0.026680013 0.024991915 0.046819113
0.028918765 0.025125019 0.046854362
0.030989688 0.024565255 0.046815895
0.032912623 0.024663579 0.046813965
0.034752116 0.025221094 0.046827316
0.03739915 0.025139755 0.046934642
0.055716276 0.024972355 0.046825211
0.056969237 0.024846857 0.046991989
-0.057047985 0.026969858 0.047092002
-0.055810153 0.026518432 0.046747409
-0.036114663 0.026694408 0.046210349
-0.035051093 0.027137965 0.047164828
-0.033294767 0.026993349 0.047347873
-0.031408221 0.026756451 0.047346383
-0.02914845 0.026615143 0.047218621
-0.026909173 0.027232811 0.047344267
-0.025057167 0.026997969 0.047342926
-0.022835057 0.026777467 0.047216259
-0.020601317 0.026536301 0.047340214
-0.018614572 0.027374119 0.047281042
-0.016989738 0.027002409 0.047338188
-0.014858605 0.026783457 0.047213137
-0.012768537 0.026761107 0.047042638
-0.01067253 0.027358036 0.047138572
-0.0088943643 0.026777923 0.04713726
-0.0069279601 0.026778236 0.047093064
-0.0048515503 0.026766658 0.047133826
-0.0030871038 0.027357688 0.047132514
-0.00098822324 0.026779473 0.047089845
0.00096513791 0.026770603 0.047129493
0.0027224319 0.026771974 0.047127765
0.0044931769 0.02735734 0.047126435
0.0066629122 0.026774973 0.047085315
0.0088582262 0.026670866 0.047262579
0.01090008 0.02720671 0.047121327
0.012987785 0.02697178 0.047018498
0.015247688 0.026776992 0.047079399
0.017340897 0.026800781 0.046965659
0.018461093 0.026973814 0.046837449
0.020271629 0.027203694 0.046835959
0.022600304 0.026605468 0.046878695
0.024696305 0.026736975 0.046833634
0.026539356 0.026968792 0.046832055
0.028913956 0.027069133 0.046875559
0.031021222 0.026493251 0.046829671
0.032898292 0.026727036 0.046828061
0.034788132 0.026963577 0.046826512
0.037069481 0.027067017 0.046868186
0.055831864 0.026701823 0.046867982
0.057068035 0.026990645 0.047121331
-0.057042897 0.029024059 0.047027972
-0.055838473 0.029346526 0.046834275
0.046916291 -0.036180526 0.018912414
-0.050419837 0.029505342 0.046099246
-0.036114842 0.029049855 0.046211302
-0.034927528 0.029227857 0.047065955
-0.033254474 0.029146058 0.047220927
-0.03146904 0.028983913 0.047219954
-0.029165844 0.028960381 0.047117736
-0.026888898 0.029296858 0.047218543
-0.025126576 0.029136173 0.04721763
-0.022851672 0.029052598 0.047116306
-0.020623527 0.029115008 0.047341213
-0.018845133 0.029284094 0.047215365
-0.017112764 0.029126678 0.047214411
-0.014908125 0.02904881 0.047114421
-0.012742868 0.028959226 0.047140509
-0.010777093 0.029285783 0.047095343
-0.0089611532 0.029032184 0.047023859
-0.0069892909 0.028950145 0.047050577
-0.004828352 0.029053027 0.047213256
-0.0031075855 0.029284867 0.047090769
-0.0009855039 0.029073328 0.04700328
0.0011188457 0.028842071 0.047088504
0.002803379 0.029047525 0.047207858
0.0045580338 0.029284598 0.047086179
0.0067207427 0.029076785 0.046999261
0.0091511458 0.028880943 0.047283173
0.010948144 0.029169405 0.04708235
0.012927949 0.028953252 0.047007561
0.015004303 0.029084776 0.046994381
0.017340897 0.029165465 0.046965659
0.018620402 0.029107137 0.04687969
0.020354887 0.029264323 0.046878695
0.022617077 0.029112082 0.046877891
0.024885168 0.028957628 0.046877168
0.026641458 0.029116226 0.046876095
0.02902461 0.029232193 0.046911277
0.031065375 0.029099325 0.046828464
0.032989174 0.028963767 0.046873353
0.034776859 0.029125683 0.046872359
0.037060786 0.029228399 0.046887327
0.04948175 0.029476702 0.046504319
-0.056402743 -0.030919412 0.011003368
0.055855792 0.029379582 0.046930805
0.057074893 0.029056437 0.047081444
-0.057072259 0.031057326 0.046984714
-0.055673063 0.031416081 0.046584338
-0.052362829 0.031418651 0.046221972
-0.04964298 0.030682012 0.047330022
-0.036114514 0.031404845 0.046209395
-0.035049319 0.031384531 0.047067106
-0.033363238 0.031285081 0.047349304
-0.031469822 0.031035442 0.047347844
-0.029209107 0.031268347 0.04734683
-0.026957765 0.03149781 0.047345698
-0.025099292 0.03125057 0.047344297
-0.022858938 0.031180834 0.047217172
-0.020645916 0.03170443 0.047342271
-0.018820852 0.031459544 0.0473409
-0.01700753 0.03121743 0.047339529
-0.015032344 0.031288292 0.047196951
-0.0130606 0.031196654 0.046983279
-0.010709624 0.031300161 0.047138553
-0.0089415517 0.031292453 0.047136806
-0.0069341543 0.031121662 0.047021996
-0.0048637493 0.031303022 0.047134183
-0.0030978029 0.031298064 0.047132432
-0.0009992203 0.031354886 0.047089428
0.00096756185 0.030704333 0.047129393
0.0027431645 0.031296514 0.047128044
0.0045087337 0.031297687 0.047126293
0.0066765919 0.031359199 0.047084823
0.0089200065 0.030919166 0.047263294
0.010938327 0.031141115 0.047121108
0.012700359 0.031150006 0.04711936
0.014882261 0.031391162 0.047199201
0.016677901 0.03094833 0.046837449
0.018482774 0.031187359 0.046835929
0.020299271 0.031429131 0.046834439
0.02263396 0.031625822 0.046877109
0.024736091 0.030975837 0.046832144
0.02658549 0.031219874 0.046830505
0.028949033 0.03148789 0.046874464
0.031109869 0.031716544 0.046827257
0.032963961 0.031004447 0.046826422
0.0348607 0.031253699 0.046824843
0.037070952 0.031476654 0.046801887
0.048659593 0.030623823 0.047566712
0.050945893 0.030698869 0.046555042
0.055716693 0.031215027 0.046825588
0.05707211 0.031105736 0.047185391
-0.056959614 0.032989141 0.047134262
-0.055857759 0.032811686 0.046919506
-0.036114335 0.032974869 0.046208441
-0.034712285 0.032880906 0.046572208
-0.033170149 0.032880906 0.047038257
-0.031497985 0.032786194 0.047330737
-0.029159086 0.033100404 0.046930015
-0.026506141 0.032879833 0.046673059
-0.024978504 0.032879833 0.047130138
-0.022868138 0.032858327 0.047193866
-0.020490201 0.033100404 0.046930015
-0.018460527 0.03287879 0.046770066
-0.016946778 0.03287879 0.047218621
-0.014868798 0.032827016 0.047190707
-0.012422249 0.032717574 0.0468373
-0.010581772 0.032802008 0.046737731
-0.0090661645 0.032877792 0.047303736
-0.0069763968 0.032796904 0.047187649
-0.0049077277 0.032761741 0.046832561
-0.0032516199 0.032764897 0.046581134
-0.00085874478 0.032924917 0.047185563
0.00096868438 0.032416031 0.047117434
0.0032154841 0.032730177 0.046517909
0.004798844 0.032876108 0.04704088
0.0068626399 0.032893952 0.04718272
0.0085828109 0.032416716 0.047111295
0.010913707 0.032752626 0.046862468
0.013070226 0.032745976 0.047304928
0.01497343 0.033100404 0.046929985
0.016684279 0.032659832 0.046818852
0.018460318 0.03287879 0.046770036
0.020490019 0.033100404 0.046930015
0.022854237 0.033100404 0.046930015
0.024753794 0.03270616 0.046813458
0.026505917 0.032879818 0.046673
0.029158873 0.033100404 0.046929985
0.031523138 0.033100404 0.046930015
0.032993987 0.032754395 0.046807796
0.034712061 0.032880906 0.046572149
0.037039682 0.033100404 0.046930015
0.05583328 0.032909334 0.046956353
0.057033222 0.03290727 0.047154877
-0.056884468 0.032609668 0.045522001
-0.053531226 0.028072365 0.042330619
-0.051550768 0.03117625 0.04433075
-0.033398885 0.026855152 0.041751288
-0.042177577 0.028907873 0.042807989
-0.047609761 0.032660648 0.045068897
-0.043645561 0.027959026 0.042027187
-0.028326031 0.027989354 0.041931905
-0.035148919 0.029252287 0.042678151
-0.040367324 0.031023372 0.044101436
-0.036518868 0.027627634 0.041528281
-0.018595109 0.026931176 0.041212659
-0.02586019 0.026062103 0.040474966
-0.032776624 0.032464698 0.044674236
-0.029904032 0.029704656 0.042729363
-0.016229853 0.028738251 0.041710705
-0.021516103 0.02976569 0.042635847
-0.027045859 0.030572148 0.043365322
-0.020659452 0.027478267 0.040427674
-0.0060917079 0.028330958 0.040772554
-0.01312816 0.027021665 0.04038522
-0.018343966 0.032388091 0.044447497
-0.013913786 0.030613801 0.041501075
0.00053845387 0.028109673 0.041054808
-0.0075479466 0.029288454 0.041999847
-0.01221965 0.031600919 0.043778367
-0.010045835 0.030138286 0.042409766
0.0023673878 0.030838294 0.042990141
0.021514921 0.023610156 0.03697633
-0.0059475224 0.028249478 0.040898245
-2.3664286e-05 0.030156786 0.042997323
0.0081080515 0.028915411 0.042415727
0.016907534 0.029106664 0.043848351
0.013754597 0.02498382 0.041971952
0.0027682998 0.025741065 0.040987182
0.0073635965 0.02956802 0.039199233
0.020086277 0.032564722 0.042048931
0.0063884621 0.023923947 0.040349256
0.0085842479 0.025799757 0.039833646
0.0098217642 0.027490264 0.040802836
0.023736335 0.02832615 0.04341352
0.021671329 0.029363692 0.042603482
0.010337917 0.02906635 0.041358225
0.01795711 0.027107969 0.042894159
0.031007651 0.028617676 0.044695925
0.029257152 0.021647139 0.040301755
0.0054152249 0.02332481 0.041197669
0.02311247 0.02397294 0.041680165
0.038377207 0.024884501 0.044002451
0.028291166 0.029269569 0.042685259
0.023168162 0.028197885 0.04196886
0.035511415 0.027887285 0.042025872
0.048268229 0.031166164 0.045100812
0.037365045 0.029064421 0.042863503
0.030244878 0.027279746 0.041656394
0.04534157 0.02901572 0.044198699
0.040757105 0.025245277 0.042534363
0.056851335 0.034851227 0.047007523
-0.056545191 0.036197305 0.047138512
-0.054765668 0.036252193 0.047016971
-0.052903563 0.036273852 0.046795618
-0.05083869 0.036281388 0.047105264
-0.049034853 0.036248136 0.046989635
-0.046987563 0.036274899 0.046915349
-0.044898693 0.036305208 0.047013991
-0.04300309 0.036274731 0.046874441
-0.040976569 0.036245916 0.046982288
-0.039041687 0.036274165 0.047122139
-0.036960956 0.03627469 0.046993189
-0.034779537 0.036275323 0.046937902
-0.03315853 0.036254898 0.047275867
-0.031184429 0.03626569 0.046945754
-0.029066479 0.036281031 0.046970174
-0.026894886 0.036270313 0.047025062
-0.02503047 0.036261 0.04707275
-0.023089381 0.036270391 0.046966605
-0.021047568 0.036281891 0.046926238
-0.019041857 0.036275655 0.046998251
-0.017019734 0.036246311 0.047060557
-0.015109553 0.036281563 0.047005981
-0.013223276 0.036281686 0.04697983
-0.011020171 0.036266346 0.047041431
-0.0090357643 0.036262117 0.046906926
-0.0070473724 0.036275811 0.047103535
-0.0048623132 0.036275744 0.046894681
-0.0027917752 0.036288619 0.046819005
-0.00082504109 0.036288556 0.046959013
0.0010079326 0.036256149 0.046959981
0.002791357 0.036288675 0.046818983
0.0048619085 0.036275718 0.046894655
0.0070469612 0.036275834 0.04710355
0.0090353172 0.036262095 0.046906903
0.01101975 0.036266245 0.047041465
0.013222888 0.036281686 0.046979837
0.015109194 0.036281463 0.047006093
0.017019365 0.03624621 0.047060546
0.019041577 0.036275458 0.046998274
0.021047315 0.036281697 0.046926226
0.023089131 0.036270011 0.046966568
0.025030283 0.036260627 0.0470725
0.026894839 0.036269899 0.04702501
0.029066462 0.036280505 0.046970081
0.031184429 0.036265232 0.046945643
0.033158448 0.036254603 0.04727577
0.034779489 0.036275148 0.046937875
0.036960807 0.036274582 0.046993215
0.039041527 0.036274135 0.04712227
0.040976424 0.036245801 0.046982657
0.043002781 0.03627488 0.04687465
0.044898223 0.036305536 0.047014136
0.046987068 0.036275189 0.046915524
0.049034398 0.036248475 0.046989817
0.050838407 0.036281519 0.047105357
0.05290325 0.036273908 0.046795607
0.055019721 0.036278859 0.0469926
-0.056316718 -0.036124825 0.049191475
-0.055034321 -0.036246028 0.049020108
-0.053082932 -0.036216427 0.048968188
-0.050976448 -0.036209583 0.049097963
-0.049023777 -0.036189158 0.048833016
-0.04719869 -0.036216903 0.048974168
-0.044995736 -0.036209114 0.048983995
-0.042890064 -0.036224194 0.049102776
-0.040978037 -0.036188502 0.049130343
-0.0391289 -0.036215737 0.04906008
-0.036961075 -0.036233146 0.048920959
-0.034933597 -0.036215242 0.049161725
-0.032819413 -0.036181141 0.048883032
-0.031111876 -0.036232933 0.04917229
-0.029003028 -0.036223613 0.048983075
-0.026883202 -0.036232505 0.049194451
-0.025087619 -0.03618136 0.048890844
-0.023267625 -0.036222726 0.049112551
-0.020973381 -0.0362157 0.049021102
-0.018858975 -0.036223248 0.049268093
-0.016957175 -0.036169954 0.048910789
-0.015198514 -0.036233343 0.049146336
-0.013046852 -0.036223359 0.049101572
-0.010946734 -0.036223836 0.049189191
-0.0088465661 -0.036170214 0.048985645
-0.0069916314 -0.036222681 0.049124837
-0.0050534299 -0.036223348 0.049105808
-0.0027757857 -0.036208507 0.04899966
-0.00068371528 -0.036223248 0.049080931
0.00082025508 -0.036181021 0.04905111
0.0027755881 -0.036208589 0.048999678
0.0050532422 -0.036223318 0.049105875
0.0069915084 -0.036222704 0.049124863
0.0088463835 -0.036170304 0.048985578
0.01094651 -0.036223885 0.049189202
0.013046666 -0.036223438 0.049101572
0.015119184 -0.036223516 0.049210533
0.016957026 -0.036170051 0.048910886
0.018912241 -0.036233414 0.049207527
0.020978155 -0.036208566 0.049089812
0.023267461 -0.036222741 0.049112543
0.025087465 -0.036181498 0.0488909
0.026948774 -0.03624459 0.049127858
0.029002806 -0.036223851 0.04898303
0.031111678 -0.036232997 0.049172278
0.03281923 -0.036181211 0.048883032
0.034933411 -0.036215398 0.049161687
0.036960814 -0.036233328 0.048921078
0.039128769 -0.036215931 0.049060136
0.040978104 -0.036188178 0.049130537
0.042889979 -0.036224157 0.049102854
0.044995829 -0.036208909 0.048984189
0.04719859 -0.03621693 0.04897429
0.04901588 -0.036181994 0.048945799
0.050976221 -0.036209662 0.049097966
0.053082634 -0.036216516 0.048968088
0.05490239 -0.036190048 0.048923142
-0.057019126 -0.034993786 0.049207937
-0.055101231 -0.035186835 0.048836194
-0.053209804 -0.035266668 0.048987821
-0.051282585 -0.035213944 0.04889968
-0.049141776 -0.035267033 0.048925646
-0.047082253 -0.035224546 0.049068678
-0.044881091 -0.035169937 0.04883194
-0.042934019 -0.035212144 0.048794817
-0.040951282 -0.035253864 0.048821088
-0.038819794 -0.035252847 0.049059123
-0.036845353 -0.035161015 0.049064226
-0.035089757 -0.035343505 0.049037192
-0.032728873 -0.035246223 0.048842333
-0.0308681 -0.035218958 0.048710831
-0.029020244 -0.035309523 0.049064167
-0.027013378 -0.035191353 0.048894964
-0.025068812 -0.035213225 0.049057223
-0.022935221 -0.035182692 0.048997454
-0.021108026 -0.035146769 0.048919369
-0.018536551 -0.035261344 0.048730545
-0.016941935 -0.035184972 0.048735958
-0.014992046 -0.035253413 0.048852697
-0.012914148 -0.03510594 0.048926368
-0.011145139 -0.035343181 0.048949081
-0.0090032127 -0.035112128 0.048960663
-0.0071021495 -0.035335522 0.04913437
-0.0049844189 -0.035064857 0.048835542
-0.0029597811 -0.035230562 0.048901781
-0.00086785376 -0.035182901 0.048574012
0.00097605574 -0.035214934 0.048588775
0.0029595289 -0.035230566 0.048901655
0.0049987435 -0.035106398 0.04899874
0.0070944387 -0.035359461 0.049197905
0.0090030534 -0.035111964 0.04896073
0.011144794 -0.035343077 0.048949122
0.012913644 -0.035105787 0.048926391
0.015005421 -0.035302974 0.048986189
0.016941598 -0.035184968 0.048735935
0.018536363 -0.035261203 0.04873066
0.021107957 -0.035146493 0.04891941
0.022934927 -0.035182502 0.04899748
0.025097204 -0.035201918 0.049025457
0.027013451 -0.035191409 0.048895534
0.029072136 -0.035314891 0.049129426
0.030869823 -0.035218753 0.048708938
0.032729723 -0.035246372 0.048841473
0.035090122 -0.035343662 0.049037114
0.036844976 -0.03516132 0.049064238
0.038819451 -0.035252754 0.049058884
0.040950503 -0.035253398 0.048820846
0.042933699 -0.035212129 0.048795093
0.044881038 -0.035170212 0.048832174
0.047082257 -0.035224833 0.049068637
0.049141947 -0.035267346 0.048925038
0.051239491 -0.035227027 0.0489491
0.053209554 -0.035266742 0.048987694
0.055089768 -0.035129096 0.048800621
0.057071958 -0.035006315 0.049108312
-0.056835487 -0.033081468 0.049072154
-0.055720866 -0.032957505 0.04900869
-0.052792862 -0.017651122 0.042530268
-0.035643466 0.00094195083 0.0068676658
-0.046082687 -0.0038396246 0.0070108534
-0.057026811 0.00093644793 0.0070214137
0.056911562 -0.0011948332 0.0070349202
0.055666149 -0.0011302924 0.0076717436
0.031514697 -0.0034743634 0.0070427638
-0.035991315 -0.0010626813 0.0068457732
-0.055724621 -0.0013928623 0.0069398582
-0.056991886 -0.0011837976 0.0070066974
0.05703548 -0.0031240485 0.0069233407
0.055800907 -0.0031632816 0.0073108217
0.036894608 -0.0029922884 0.0070954296
-0.035993084 -0.0029287501 0.0071114702
-0.055830389 -0.0033747707 0.0069449386
-0.057075076 -0.0030989891 0.0070178793
0.057065312 -0.0050405795 0.0069435993
0.055666149 -0.0050898921 0.0076717436
0.0006299261 -0.0048668971 0.0070655625
-0.036414176 -0.0048693139 0.0072000176
-0.055724621 -0.0051098866 0.0069398582
-0.057071038 -0.0050597945 0.0069331173
0.056957673 -0.0070582316 0.0069282395
0.055666149 -0.0073525207 0.0076717436
0.00065517984 -0.0069077117 0.0069978968
-0.036385458 -0.0070412382 0.0072952509
-0.020012408 -0.01949189 0.027854048
-0.056901321 -0.0071055209 0.0069704987
0.057012066 -0.0090412889 0.0069466829
0.055799916 -0.0089021111 0.0072602695
0.00073143095 -0.0089521259 0.0070243971
-0.036342345 -0.0090031819 0.0069271848
-0.055794477 -0.0088024335 0.0069095339
-0.05706438 -0.0091327252 0.0069357986
0.056893885 -0.011044471 0.0070000119
0.046390969 -0.01082602 0.0073977169
-0.035644196 -0.011034498 0.0072530918
-0.036351837 -0.010860458 0.0071946681
0.049947381 -0.032016609 0.049645603
0.05576035 -0.032977834 0.048698381
0.056980316 -0.033086643 0.049082097
-0.05702281 -0.03103557 0.049064938
-0.055669546 -0.030824816 0.049318492
-0.0055488013 -0.012896329 0.046534941
-0.052276254 -0.020579711 0.044223845
-0.04898008 -0.030949872 0.048988819
-0.056965753 -0.025009656 0.0070189158
0.05636555 -0.026774421 0.0072441632
0.037154168 -0.02703554 0.0071121119
-0.035589069 -0.026659068 0.0075298063
-0.036369454 -0.027115617 0.0070500434
-0.055775329 -0.026873864 0.0070021781
-0.057050955 -0.026903493 0.0069520306
0.056284063 -0.029028894 0.0073355092
0.037058592 -0.028647542 0.0072480291
-0.035625845 -0.029016187 0.0075073987
-0.036388159 -0.029217077 0.0071911216
-0.055724978 -0.029270455 0.0069396496
-1.3142824e-05 -0.03011865 0.0069653252
0.055666268 -0.031110061 0.0076719522
0.037137777 -0.030858258 0.0070570558
0.035070278 -0.031779706 0.0071571274
0.033428993 -0.031782132 0.0066371365
0.03031509 -0.031780999 0.0070013702
0.027476247 -0.031781774 0.0074188514
0.025112223 -0.031781536 0.0068813367
0.023038592 -0.031780943 0.0066416785
0.020695541 -0.031780794 0.0071949214
0.018967405 -0.031779468 0.0063213706
0.016271709 -0.031781524 0.007023429
0.013130104 -0.031781279 0.0070536337
0.010865128 -0.031780921 0.0070632896
0.0089779496 -0.03178066 0.0067732185
0.007095661 -0.031780973 0.007339403
0.003922835 -0.031781018 0.0072460473
0.0011340789 -0.031781122 0.0067817867
-0.0011340193 -0.031781092 0.0067817718
-0.0031207651 -0.031781793 0.0077108741
-0.0047247931 -0.031781122 0.0067815036
-0.007095702 -0.031781182 0.0073394999
-0.0099215023 -0.031781055 0.006918381
-0.013130054 -0.031781517 0.0070537133
-0.015159851 -0.031781655 0.0071141822
0.031831946 -0.019981954 0.045164417
0.045383058 -0.0027126074 0.039795991
0.055719137 -0.030953463 0.048655204
0.057091024 -0.031084705 0.049083509
-0.056971084 -0.029129542 0.04906331
-0.055670321 -0.029275838 0.048767328
0.04690516 -0.0086364811 0.042560056
-0.01768603 -0.022611393 0.046858318
-0.032788754 -0.032695167 0.007032752
-0.034877162 -0.032676142 0.0066087516
-0.046060495 -0.032880936 0.0073806304
-0.05690657 -0.033132095 0.0069724801
0.056854021 -0.03494373 0.0069247289
0.055119012 -0.035177018 0.0071037174
0.053104855 -0.035202671 0.0072635324
0.050127216 -0.035276331 0.0070636626
0.047039725 -0.035205878 0.007061732
0.045083795 -0.035312079 0.007156021
0.043041043 -0.035251901 0.0071470956
0.040710039 -0.035205431 0.0070487866
0.037763923 -0.035188012 0.0070392443
0.03485693 -0.035206746 0.0072310613
0.033017151 -0.035271417 0.0072708866
0.030822819 -0.035226282 0.0071115848
0.028744256 -0.035188086 0.0070014312
0.026096616 -0.03521736 0.0070658885
0.023017129 -0.035270929 0.0073297322
0.020808695 -0.035071768 0.0071241278
0.01874052 -0.035275806 0.0071440754
0.016817592 -0.035233781 0.0069759935
0.014920883 -0.035246715 0.007009828
0.011787023 -0.035220996 0.0072617717
0.0090564284 -0.035205282 0.0069468329
0.0068484675 -0.035054065 0.0072568455
0.0051516844 -0.035300605 0.007078643
0.0029950119 -0.035129979 0.0071901167
4.8516784e-05 -0.035265483 0.0070662377
-0.0029951509 -0.035129771 0.0071899723
-0.0051515526 -0.035300702 0.0070786336
-0.0068486976 -0.035054162 0.0072567817
-0.0090564853 -0.035205331 0.006946756
-0.01178705 -0.035221018 0.0072615985
-0.014920665 -0.03524695 0.0070099048
-0.016817469 -0.035233781 0.0069759483
-0.018739989 -0.035275832 0.0071440311
0.049052954 -0.029769287 0.04856509
-0.050108712 0.0051314309 0.043485209
0.055718854 -0.029048659 0.048654988
0.056934044 -0.029201295 0.049021393
-0.056962274 -0.026928173 0.049095284
-0.055755526 -0.027064558 0.049006052
-0.0072304024 -0.036232945 0.0069440058
-0.0089908922 -0.036187999 0.0071753063
-0.012006372 -0.036219332 0.0070011215
-0.015242836 -0.036232777 0.0069458722
-0.017106844 -0.036181521 0.0071794898
-0.018948931 -0.036222905 0.0068834992
-0.021035835 -0.036223959 0.0069883289
-0.024161011 -0.036207214 0.0070437826
-0.026885701 -0.036222871 0.0070026433
-0.028927973 -0.036233831 0.0070941225
-0.031036666 -0.036233194 0.0069508874
-0.032927766 -0.036170386 0.0070437714
-0.035937853 -0.036221325 0.006961362
-0.038931865 -0.036216453 0.0069527165
-0.040961199 -0.036166985 0.0070648263
-0.042946905 -0.036216527 0.0068532783
-0.045059573 -0.036208775 0.0070270225
-0.048116595 -0.036198031 0.0069508022
-0.050886076 -0.036224909 0.0070929187
-0.052950259 -0.03620287 0.0068852887
-0.055027068 -0.036246594 0.007107947
0.056440003 0.036195934 0.0048531145
0.054944634 0.036286544 0.0049247262
0.051936958 0.036281809 0.0048155356
0.048934314 0.036244784 0.0048937211
0.04707741 0.036280505 0.0049485671
0.045008838 0.036265463 0.004834027
0.030538339 0.0041504018 0.026862456
0.040061198 0.036265165 0.0050458005
0.037019882 0.036274284 0.0050066998
0.034970969 0.036274947 0.0050578332
0.033035066 0.03625039 0.0049585318
0.031129774 0.0362744 0.0049143769
0.028043566 0.036274899 0.0050407713
0.025002861 0.036254663 0.0049909623
0.023175683 0.03627003 0.0050301813
0.021060962 0.03627548 0.0050078756
0.055787962 -0.026982134 0.048747431
0.056935463 -0.02699778 0.04907063
-0.057033625 -0.024938941 0.049033649
-0.055669934 -0.025041768 0.04904291
0.017466471 0.02252079 0.0039682449
0.016892618 0.022406358 0.0040056021
0.017660461 0.025276851 0.0044207089
0.015116658 0.023811642 0.0042323899
0.015176333 0.028029772 0.0043388871
0.012910099 0.025209952 0.0043847407
0.011242131 0.023596412 0.0041556391
0.010969448 0.025995929 0.0046087559
0.0090077389 0.0269669 0.0043918188
0.0066361604 0.01165628 0.0033451626
0.0061029484 0.024584142 0.0041072415
0.0047620418 0.023477664 0.004245942
0.0022923767 0.02997355 0.0046729394
0.001688896 0.024711527 0.0043217409
-0.00024101711 0.024608165 0.0041050077
0.0060596904 0.011644408 0.0033455994
-0.0034600636 0.026577264 0.0043545649
-0.0057416833 0.02667423 0.0045302925
-0.0049003651 0.023612469 0.0041373647
-0.0075015426 0.025208386 0.0044225855
-0.011170166 0.028028915 0.0043383874
-0.017401561 0.022634141 0.0040428862
-0.028202759 0.025483944 0.0043494371
-0.031012414 0.022701934 0.0038879223
-0.031722773 0.022814447 0.00386812
-0.032041155 0.026136316 0.0043526134
-0.033249088 0.027360026 0.0044451393
-0.035342872 0.025858026 0.0042819674
0.0017271626 -0.0078789201 0.033928849
-0.038215537 0.02562408 0.0043886779
-0.040082593 0.027281556 0.0043322896
-0.041425187 0.027832177 0.0045711193
-0.043786585 0.027941136 0.0044291206
-0.043209981 0.023980927 0.0042842939
-0.045498595 0.025553213 0.0042967349
-0.055189162 0.035201613 0.0048575881
-0.057011764 0.035049487 0.0049337982
0.05571878 -0.025238885 0.048654914
0.057080891 -0.024916019 0.049157485
-0.056968234 -0.02294015 0.049239408
-0.055669934 -0.022815743 0.04904291
0.020974761 0.031895559 0.0051773787
0.019181743 0.03189411 0.0048422916
0.017031204 0.031895012 0.005026035
0.013759173 0.031894207 0.0045434125
0.011191659 0.031894565 0.0050162748
0.0086692274 0.031894863 0.00467664
0.0067154421 0.031894527 0.0052747629
0.0050691068 0.031895123 0.0047604442
0.0020213779 0.03189493 0.0050185323
-0.0011282265 0.031894475 0.0050173849
-0.0029146262 0.03189449 0.0050193369
-0.005069097 0.031894546 0.0047602556
-0.0067155412 0.031894766 0.0052748425
-0.0099306032 0.031894863 0.0048465207
-0.012749612 0.031893373 0.0040760934
-0.014768902 0.03189455 0.0050105229
-0.017031197 0.03189455 0.0050258711
-0.020078346 0.031894833 0.0050098402
-0.022869632 0.0318923 0.0047771037
-0.024711479 0.03189455 0.0048729926
-0.026772972 0.031893849 0.0055569015
-0.028798331 0.031894609 0.0047238991
-0.031865336 0.03189373 0.0049767247
-0.035323609 0.031467676 0.0048237424
-0.036536455 0.031421959 0.0050173998
-0.055726886 0.03088058 0.0052265972
-0.057054244 0.031093374 0.0050177989
0.056343835 0.029193625 0.0049939351
0.036964089 0.028881079 0.0050484808
-0.0059197117 0.0036371052 0.026829766
-0.036535978 0.029065318 0.0050172359
-0.055800982 0.029170498 0.0050391201
6.3944608e-06 0.028094068 0.005001443
0.055757523 0.026578233 0.0050623957
0.036960077 0.026998779 0.0052047572
-0.035615921 0.027384436 0.0053665242
-0.023237649 0.025377285 0.003889678
0.05571878 -0.023333985 0.048654914
0.056974933 -0.022844026 0.049080048
-0.05693477 -0.021090593 0.049010478
-0.055734694 -0.020671101 0.049236115
0.056996185 0.011071338 0.0047918879
0.055718508 0.010793114 0.0050663557
0.036799245 0.01095308 0.0051161684
-0.035633862 0.011300968 0.0050209779
-0.036358438 0.011063889 0.0051992238
-0.056384273 0.010899366 0.0050125634
0.056886815 0.0089360802 0.0049905954
0.055662435 0.0087699853 0.0047906837
0.030268814 0.0078497408 0.0051062703
-0.039269775 0.0053384532 0.0053782668
-0.055726677 0.0087579368 0.005226776
-0.056999069 0.0088577373 0.0050484785
0.056992896 0.0070169489 0.0049037971
0.055773746 0.0067873299 0.0051669651
0.00071818382 0.0068773748 0.0050642118
-0.036426768 0.0069720107 0.0046926886
-0.055797741 0.0066514905 0.0051045613
-0.0570498 0.0071094371 0.0049540498
0.05633989 0.0050987555 0.0050201202
0.036823075 0.0048346636 0.0049352157
-0.035686895 0.0048598605 0.0048610973
-0.036535501 0.0047141388 0.005017072
-0.055726677 0.0050708149 0.005226776
-6.6760927e-05 0.0040759933 0.0049685286
0.055662841 0.0028575719 0.0050811172
0.036971569 0.0029175251 0.0050450303
-0.035634719 0.0028754752 0.0050472394
-0.036414981 0.0030078876 0.0045859069
-0.05632709 0.0031541821 0.0051103802
0.057033014 0.00096844725 0.0048289718
0.039632484 -0.0097977193 0.026931886
0.03694902 0.00090764358 0.0050895419
-0.015219182 -0.0060300659 0.019506326
-0.05577952 0.0010553697 0.0052424744
-0.057009272 0.0010264 0.0048702103
0.056977361 -0.0012198664 0.004871794
0.055662841 -0.0011415984 0.0050811172
0.0006700363 -0.0010057946 0.0048533999
0.055753849 -0.021011118 0.048609637
0.057069626 -0.020933747 0.049094409
-0.056910392 -0.01907658 0.048946131
-0.055670224 -0.019269571 0.048767488
3.4403056e-06 -0.01607486 0.004974707
0.055662435 -0.016775157 0.0047906837
0.036914177 -0.016884575 0.0050357785
-0.035645381 -0.017026853 0.004870215
-0.046065684 -0.01723784 0.0052796081
-0.05700355 -0.017039999 0.0050886124
0.05691278 -0.018966302 0.0049607153
0.055662841 -0.018852212 0.0050811172
0.037004948 -0.018919419 0.0048081535
-0.036081962 -0.018981468 0.0049686348
-0.055726677 -0.018895481 0.005226776
-0.056959946 -0.01890599 0.0049493923
0.056948617 -0.02089536 0.0049624024
0.046269309 -0.020898748 0.005016082
-0.035643429 -0.021196568 0.0048646964
-0.036438368 -0.021158269 0.0052794619
-0.055767316 -0.020650536 0.0052420227
-4.7357753e-05 -0.021908913 0.0050470149
0.05566325 -0.023205634 0.005371551
0.037281465 -0.023026699 0.0051408843
-0.035689972 -0.023299359 0.0048805899
-0.036341093 -0.023035601 0.0048357747
-0.056352455 -0.022871966 0.0050461311
0.057047594 -0.025030915 0.0049076444
0.055662435 -0.024782375 0.0047906837
0.037199218 -0.024868427 0.0052508311
-0.036001019 -0.0251892 0.0052194074
-0.055726539 -0.025084276 0.005340165
-0.057121016 -0.024982989 0.0050087511
0.056922238 -0.027016588 0.0050355033
0.055750921 -0.026785366 0.0050993506
0.0091632772 -0.024275038 0.01976417
-0.036447436 -0.02636175 0.0053322762
-0.055793606 -0.027012438 0.0051964815
-0.056944788 -0.026947578 0.0050809174
0.05625093 -0.029138403 0.0050500073
0.037003055 -0.028930461 0.0050642341
0.055718958 -0.018846376 0.048776001
0.056901772 -0.019018058 0.048965871
-0.057020944 -0.016822932 0.049014177
-0.05566971 -0.017250724 0.049043268
0.027945109 -0.032570571 0.0048586065
0.024909319 -0.032729376 0.0051633972
0.022818048 -0.032600671 0.0047326535
0.020627033 -0.032528933 0.0045415713
0.019151548 -0.032645084 0.0049531492
0.015980262 -0.032502793 0.0047671106
0.013072074 -0.032590058 0.0048720199
0.011154068 -0.03239888 0.0050431313
0.0090315379 -0.032573111 0.0048810728
0.0059445905 -0.032553457 0.0047596241
0.0031149434 -0.032457691 0.00538937
0.00092910219 -0.032538205 0.0049729217
-0.00082621991 -0.032581486 0.0049370346
-0.0040208702 -0.032495398 0.0049491031
-0.0069623627 -0.032573611 0.0050102044
-0.0091112945 -0.032626119 0.0047992319
-0.011311017 -0.032447916 0.0050795972
-0.013960208 -0.032578845 0.0047892421
-0.017123094 -0.032601934 0.0046596951
-0.019194428 -0.032700069 0.0050630085
-0.020627063 -0.032528818 0.0045414269
-0.022817964 -0.032600641 0.0047328086
-0.025811948 -0.032677483 0.0048277178
-0.029176459 -0.032515567 0.0052253827
-0.031119054 -0.032656848 0.0046649338
-0.032638025 -0.032449733 0.0048487931
-0.035677325 -0.032563038 0.0050299889
-0.055766519 -0.032868858 0.0051727681
-0.056959711 -0.032957815 0.0050671864
0.057014219 -0.034960665 0.0048726136
0.044598937 -0.029119886 0.019549705
0.051118836 -0.03521302 0.0051540444
0.038839176 -0.025933482 0.026850801
0.046934366 -0.035216279 0.0049868426
0.044934332 -0.035216562 0.0049403962
0.042025778 -0.035213176 0.005025872
0.039005928 -0.035288136 0.0048872987
0.05571878 -0.016666841 0.048654914
0.057084873 -0.016920481 0.049088247
-0.056873474 -0.014845461 0.049115092
-0.055757076 -0.01479738 0.049042996
0.048957389 -0.036177225 0.00489099
0.046056263 -0.036216713 0.0049130982
0.042706318 -0.036216747 0.0049351836
0.04104026 -0.036189325 0.0047215959
0.039171148 -0.036234178 0.00499871
0.036073554 -0.036223877 0.0049424893
0.033059906 -0.036181279 0.0049499162
0.031143397 -0.036225416 0.0049955063
0.029099602 -0.036215287 0.0051275301
0.026012462 -0.036202822 0.0049659079
0.023213889 -0.036216311 0.0051032915
0.021071171 -0.036215145 0.0049940753
0.019096354 -0.036233872 0.0049058646
0.016291825 -0.036198922 0.005017519
0.013080648 -0.036208421 0.0050609037
0.010924701 -0.036224317 0.0048807203
0.0089952331 -0.036170613 0.0049987743
0.0062354486 -0.036216393 0.0049013235
0.002942974 -0.036209039 0.0048408541
0.00094250374 -0.036175072 0.0049818978
-0.00079765945 -0.036215074 0.0049622529
-0.0029431169 -0.036208984 0.0048408224
-0.0062355781 -0.036216363 0.004901309
-0.0089954343 -0.036170557 0.0049986946
-0.010924881 -0.036224321 0.0048807301
-0.013080767 -0.03620841 0.0050609186
-0.016291957 -0.036198828 0.0050174976
-0.019096555 -0.036233876 0.0049058702
