# .PCD v0.7 - Point Cloud Data file format
VERSION 0.7
FIELDS x y z
SIZE 4 4 4
TYPE F F F
COUNT 1 1 1
WIDTH 1294
HEIGHT 1
VIEWPOINT 0 0 0 1 0 0 0
POINTS 1294
DATA ascii
-0.036969386 -0.035223916 0.031187642
-0.034790926 -0.03531342 0.031029925
-0.033074256 -0.03516626 0.031155603
-0.031209955 -0.035265576 0.031041652
-0.0288761 -0.035283793 0.031129794
-0.027134949 -0.035107769 0.031144243
-0.025063276 -0.0352102 0.030849814
-0.022875935 -0.035201728 0.03102231
-0.021236133 -0.035138287 0.031074848
-0.018779958 -0.035234619 0.031076828
-0.016851595 -0.035050675 0.031100651
-0.014925851 -0.035254322 0.030966384
-0.013141572 -0.035181809 0.03100262
-0.011090076 -0.035253823 0.031077202
-0.0089659346 -0.035126187 0.031030597
-0.0071225408 -0.0352768 0.030973639
-0.0049499804 -0.035064545 0.030950135
-0.003082461 -0.035276148 0.031000501
-0.00077291828 -0.035125867 0.031109381
0.00068265846 -0.03530198 0.03096371
0.0030152081 -0.035112955 0.030958122
0.0049896892 -0.035252575 0.031029871
0.0071352478 -0.035221968 0.030981801
0.0088150483 -0.035201561 0.031016419
0.010938643 -0.035232838 0.031110775
0.012760201 -0.035066288 0.03090393
0.015104377 -0.035327189 0.03116223
0.016796179 -0.03500811 0.031010954
0.018863292 -0.035240974 0.030979967
0.021218702 -0.035092443 0.030997504
0.022946615 -0.035131946 0.03105087
0.025094673 -0.03528136 0.031032227
0.026810795 -0.035138208 0.031186819
0.028949551 -0.035280451 0.031154376
0.031123567 -0.035296414 0.030987456
0.032935455 -0.035246 0.031160604
0.034852907 -0.035164714 0.031148387
0.037072465 -0.035308138 0.031191755
0.039118413 -0.035210498 0.031097714
0.041097492 -0.035264626 0.031198276
0.042812031 -0.035226915 0.031052707
0.044863377 -0.035243969 0.031172197
0.046979174 -0.035297208 0.031125952
0.048877958 -0.03531789 0.031033307
0.051043671 -0.035249606 0.031063408
0.052952562 -0.035282046 0.03105787
0.05499088 -0.03515565 0.030970301
0.057013448 -0.034803241 0.030963458
-0.056972872 -0.032966305 0.031152731
-0.055687487 -0.033409629 0.030770123
0.055747654 -0.032858592 0.030985549
0.057011433 -0.032769628 0.031204227
-0.056960557 -0.03092853 0.031000029
-0.055687487 -0.031288385 0.030770123
0.055703372 -0.031066567 0.030985638
0.056981381 -0.030796913 0.031027889
-0.057009131 -0.02902646 0.030968552
-0.055767298 -0.028806826 0.030828385
0.055703372 -0.029062176 0.030985638
0.056980286 -0.028922876 0.030984316
-0.056874309 -0.027093528 0.031204021
-0.055687129 -0.027045984 0.030770451
0.055703372 -0.027057786 0.030985638
0.05714035 -0.027098533 0.031088892
-0.056956455 -0.024939053 0.031234335
-0.055687129 -0.024924729 0.030770451
0.055748414 -0.025052071 0.030956104
0.056994781 -0.025118718 0.030971652
-0.057006054 -0.022882905 0.031119311
-0.055686891 -0.022803552 0.030770689
0.055703372 -0.023049004 0.030985638
0.057019882 -0.023051992 0.031142542
-0.056872077 -0.020918628 0.031121545
-0.055767745 -0.021073371 0.030784635
0.055703372 -0.021044614 0.030985638
0.056899197 -0.021044472 0.031085299
-0.057058305 -0.018963853 0.030988261
-0.055686891 -0.018561032 0.030770689
0.055748831 -0.01894494 0.030928692
0.057132207 -0.019029366 0.031004447
-0.056931026 -0.016957663 0.031093504
-0.055849724 -0.016328629 0.031149652
0.055703372 -0.017035833 0.030985638
0.057036892 -0.017012067 0.030917283
-0.056995977 -0.015106677 0.031021718
-0.055686593 -0.015379193 0.030771017
0.055703372 -0.015031441 0.030985638
0.057114776 -0.015035684 0.031090951
-0.056903224 -0.013072901 0.031069078
-0.055686593 -0.013257925 0.030771017
0.055779722 -0.012853439 0.031058345
0.056954972 -0.012942319 0.030978488
-0.056918412 -0.011275853 0.030837394
-0.055147041 -0.011169171 0.030961908
-0.052950986 -0.011245021 0.030932188
-0.050955381 -0.011315988 0.031170139
-0.04905602 -0.011059999 0.030975822
-0.04703356 -0.011059351 0.030913854
-0.044858128 -0.010896474 0.03105003
-0.042834759 -0.010942608 0.03111174
-0.041160792 -0.011054426 0.031597026
-0.039115876 -0.010747567 0.030640185
-0.037475016 -0.010871952 0.03089329
0.055703372 -0.011022661 0.030985638
0.056971218 -0.010995563 0.030954927
-0.037422288 -0.0087727522 0.03087852
0.055703372 -0.0090182694 0.030985638
0.056955915 -0.0089616124 0.030992489
-0.037413221 -0.0072367406 0.030955821
0.055780288 -0.0069533428 0.031011684
0.057148237 -0.0068896916 0.031014236
-0.037434518 -0.0051430361 0.030787237
0.055703372 -0.0050094877 0.030985638
0.056964763 -0.0048924685 0.031101715
-0.037434518 -0.0028572422 0.030787237
0.055703372 -0.0030050974 0.030985638
0.057150401 -0.0030446523 0.0309997
-0.037434518 -0.0011428969 0.030787237
0.055796672 -0.0014024291 0.031100795
0.056980848 -0.0010404353 0.031008774
-0.037434667 0.00057144847 0.03078723
0.055703532 0.00080056529 0.031122107
0.056979369 0.00095135346 0.03100789
-0.037434518 0.0028572425 0.030787237
0.055781655 0.0031718879 0.030926665
0.057148892 0.0030576014 0.031014122
-0.037434518 0.0051430366 0.030787237
0.055703372 0.0050094882 0.030985638
0.0571023 0.0050645657 0.031197164
-0.037437946 0.0071000094 0.030733366
0.055703372 0.0070138783 0.030985638
0.057027902 0.0069416803 0.031055331
-0.037436008 0.0087597594 0.03088518
0.055782303 0.0087540839 0.030887855
0.057061575 0.0090943864 0.031087585
-0.056991003 0.011305078 0.030771723
-0.05508836 0.01130765 0.031195754
-0.052946448 0.011309342 0.030934997
-0.050869096 0.011510521 0.031185394
-0.048883438 0.011170607 0.030924011
-0.047058251 0.011199717 0.030984217
-0.044919144 0.011177166 0.031040197
-0.042957626 0.011147043 0.031312279
-0.041331273 0.01107198 0.031269528
-0.039022408 0.010966103 0.03103601
-0.037451256 0.010894185 0.030882115
0.055703372 0.01102266 0.030985638
0.056882791 0.011090316 0.030995958
-0.056990054 0.01307493 0.031140801
-0.055813558 0.012985347 0.030700903
0.055782899 0.012911385 0.030851223
0.057049725 0.012928244 0.031018989
-0.056915145 0.015098779 0.031052552
-0.055686593 0.015379193 0.030771017
0.055703372 0.015031441 0.030985638
0.057115946 0.014992865 0.031093102
-0.056972872 0.016916087 0.031091357
-0.055814609 0.016812377 0.030919801
0.055751432 0.017006774 0.03098968
0.056979377 0.017054759 0.030964544
-0.057042737 0.018980002 0.030945782
-0.055686593 0.018561095 0.030771017
0.055703372 0.019040223 0.030985638
0.057171319 0.018994208 0.031050405
-0.056926843 0.021020338 0.031058429
-0.055772722 0.020588689 0.030834762
0.055784002 0.020988654 0.031126004
0.057009984 0.021079309 0.031082226
-0.056973871 0.022905834 0.031131987
-0.055816531 0.023385976 0.03107122
0.055703372 0.023049004 0.030985638
0.056989372 0.023150533 0.031094635
-0.056973573 0.024946123 0.031121334
-0.05568701 0.02492477 0.03077057
0.055784583 0.024921209 0.031086048
0.057040766 0.025104981 0.030949395
-0.056913119 0.02705854 0.031145899
-0.055817485 0.027206698 0.031017173
0.055703372 0.027057786 0.030985638
0.057150919 0.027017053 0.030976938
-0.057001658 0.029048258 0.031106539
-0.055687129 0.029167235 0.030770451
0.055785175 0.028790161 0.031048082
0.057104509 0.028932516 0.031016424
-0.057038371 0.030891867 0.030990239
-0.055818334 0.03094917 0.030965667
0.055785757 0.031263851 0.031012017
0.056963529 0.03090916 0.030979348
-0.056944244 0.033022538 0.031119419
-0.055819198 0.033558387 0.030916478
0.055703372 0.033070959 0.030985638
0.057087503 0.033035349 0.031262554
-0.051570229 0.034930483 0.029905584
-0.046896618 0.035440132 0.029351737
-0.039063472 0.035541821 0.028061399
-0.043810453 0.035508391 0.029625362
-0.033609755 0.035525639 0.027903005
-0.030196343 0.035509706 0.027684689
-0.034942646 0.035494816 0.029214287
-0.045151033 0.023469046 0.028080851
-0.042052653 0.028290153 0.029238969
-0.041900188 0.017322201 0.026728468
-0.038402535 0.025199028 0.028391797
-0.035411503 0.029450221 0.029636424
-0.034198754 0.019487219 0.027325043
-0.031977851 0.023516586 0.027797103
-0.029263668 0.028946178 0.029328266
-0.027911235 0.011430172 0.02511799
-0.025455449 0.028833076 0.029092418
-0.023271156 0.021093553 0.027470266
-0.021195875 0.020946959 0.027231563
-0.01867694 0.030881586 0.029744266
-0.016307646 0.023458708 0.02804485
-0.014580431 0.028834265 0.029405471
-0.01188998 0.019463496 0.026935071
-0.01013048 0.0224075 0.02777135
-0.0084228059 0.030162938 0.029640963
-0.005637215 0.023522874 0.027954053
-0.0029636223 0.02226912 0.027510911
-0.0022072287 0.029906219 0.029713158
0.0024904581 0.017425407 0.026308881
0.0019724909 0.029906319 0.02975243
0.0059564305 0.022248406 0.027494034
0.0073382338 0.025253732 0.028455969
0.0094469553 0.025003787 0.028530853
0.011335677 0.025793873 0.028555034
0.015320835 0.0210959 0.027377343
0.014682435 0.029865168 0.029647322
0.018180195 0.02592406 0.028468013
0.020211441 0.02486386 0.028280677
0.023778589 0.021097085 0.027335847
0.025009578 0.024254847 0.028151227
0.025834028 0.028214766 0.029128214
0.031242674 0.021171546 0.027484907
0.031902488 0.023339231 0.027743157
0.017611822 0.026077429 0.028723491
0.016240731 0.022642275 0.027794307
0.023933901 0.027416361 0.029098677
0.020123374 0.022534454 0.027687935
0.025047727 0.024571691 0.028380876
0.030684389 0.027484948 0.029096127
0.023959024 0.019742005 0.027230641
0.035102379 0.028278578 0.029219598
0.034782611 0.026023814 0.028465405
0.037232656 0.026049269 0.0286006
0.042939615 0.029513881 0.029530715
0.03990886 0.024552053 0.028245838
0.047104325 0.029553276 0.029473966
0.046420895 0.026426643 0.028724529
0.056986578 0.034988612 0.030889692
-0.056767985 0.036199152 0.03115496
-0.055076361 0.036253884 0.031114038
-0.053126588 0.036279492 0.03089055
-0.051045805 0.036274135 0.030946698
-0.048919044 0.036280289 0.030857146
-0.047055513 0.036245249 0.030952916
-0.045195855 0.036274649 0.030861652
-0.043102559 0.036280628 0.031027492
-0.041052122 0.036280822 0.030931387
-0.038930852 0.036274683 0.030863432
-0.036876447 0.036250766 0.030981643
-0.035100687 0.036274757 0.030983863
-0.032980267 0.036270123 0.03109183
-0.030884081 0.036296118 0.030763699
-0.029074054 0.036246181 0.031054221
-0.026990145 0.036280982 0.030809021
-0.024906863 0.036281344 0.030960826
-0.022795586 0.036275178 0.030888526
-0.020886779 0.036255401 0.030994203
-0.019165013 0.036275148 0.030721791
-0.017085871 0.036281087 0.031055324
-0.014976449 0.036275379 0.031008501
-0.012942835 0.036255736 0.03103257
-0.011150281 0.036281344 0.030901372
-0.0090971328 0.036281213 0.030892517
-0.0069657611 0.036275353 0.030750349
-0.0050054728 0.036246367 0.03109074
-0.0031206005 0.036288321 0.030864185
-0.001018024 0.036275584 0.031128353
0.0012336888 0.036281358 0.030895857
0.0030023511 0.036250819 0.030917382
0.0048518116 0.036281481 0.030901365
0.0069047767 0.036281403 0.03073038
0.0090508712 0.036275487 0.031022726
0.011120842 0.036250543 0.031164167
0.013002038 0.036281347 0.030886482
0.015062755 0.036281422 0.030897401
0.01706017 0.03627542 0.030976668
0.019081958 0.036246467 0.030789176
0.020909565 0.036287893 0.030901901
0.022861211 0.036281392 0.031052498
0.025031682 0.036281001 0.030811464
0.027075585 0.036288198 0.03084279
0.029132133 0.036242783 0.031146273
0.030975904 0.03628093 0.030802
0.032974213 0.036275316 0.031138252
0.035062414 0.036280375 0.030779462
0.037055869 0.036250938 0.030988384
0.038908795 0.036274161 0.030875422
0.040972732 0.036288127 0.031118231
0.043070495 0.036265414 0.030847814
0.045068741 0.036249138 0.031066839
0.046892852 0.036281552 0.030783616
0.048977826 0.036273878 0.030884987
0.051081069 0.036286958 0.030975666
0.052953169 0.036246091 0.031083044
0.054958493 0.036268976 0.030862281
0.056535549 0.036199301 0.031032741
-0.056257885 -0.036330663 0.032972727
-0.054777544 -0.036176831 0.033000294
-0.053020865 -0.036223285 0.033087101
-0.051044639 -0.036233462 0.033018328
-0.049052894 -0.03621443 0.032870673
-0.046994802 -0.036182202 0.033058044
-0.045164462 -0.036223318 0.032937564
-0.043132186 -0.036222734 0.033057656
-0.040941589 -0.036208108 0.032973688
-0.038904313 -0.036223516 0.032965086
-0.03697753 -0.036166616 0.03310487
-0.034919005 -0.036244672 0.032936849
-0.032954697 -0.036214907 0.033326596
-0.03087767 -0.036232673 0.032794524
-0.029195761 -0.036180355 0.033085849
-0.027121568 -0.036207985 0.032900453
-0.024874486 -0.036214795 0.032980599
-0.022852737 -0.036222722 0.033070482
-0.020877259 -0.036180854 0.032988507
-0.018985111 -0.036222994 0.033003431
-0.016927164 -0.036222737 0.033135839
-0.014897968 -0.036222707 0.033148851
-0.012925642 -0.036174733 0.032753356
-0.011038217 -0.036232449 0.033001132
-0.0089330133 -0.036222603 0.032909002
-0.00692885 -0.036214557 0.032992981
-0.0050110659 -0.036180317 0.033289716
-0.0031870138 -0.036232412 0.032803934
-0.0011587315 -0.03623243 0.033174384
0.0010359533 -0.036214747 0.033014368
0.0030054715 -0.036180552 0.033007216
0.0048036249 -0.036214862 0.03309834
0.0069605671 -0.036223046 0.032803293
0.0091246553 -0.036222614 0.032913771
0.011002298 -0.036180198 0.033078302
0.012950069 -0.036214426 0.033075005
0.015138709 -0.036214665 0.033076972
0.017231403 -0.036232531 0.032994103
0.018948615 -0.036196679 0.033046536
0.020721996 -0.036214769 0.032979846
0.02280692 -0.036214817 0.033004649
0.024985148 -0.036214657 0.032958701
0.027195726 -0.036214821 0.032898519
0.029054964 -0.036187708 0.033140946
0.030996319 -0.036207989 0.033121955
0.033252917 -0.03623271 0.033160295
0.035165802 -0.036215343 0.032888141
0.037022673 -0.036175817 0.033187646
0.03887431 -0.036222707 0.032716747
0.04109003 -0.036208201 0.033104096
0.043123312 -0.036244877 0.033083763
0.04485742 -0.036181476 0.032952297
0.046886597 -0.036208346 0.032922767
0.049107064 -0.036234546 0.033097986
0.051015668 -0.036208518 0.033018053
0.053061444 -0.036181301 0.03294725
0.054624889 -0.036189053 0.032954548
0.056564376 -0.036120653 0.03267172
-0.056932986 -0.034691747 0.033064064
-0.055125087 -0.035021584 0.032973129
-0.052972432 -0.035250559 0.033060275
-0.050996516 -0.035217758 0.03311038
-0.04880625 -0.035239998 0.032872848
-0.046779472 -0.03527813 0.032998629
-0.044668626 -0.035209 0.03301334
-0.042826667 -0.035096578 0.033054691
-0.040963881 -0.035305507 0.033110686
-0.038976237 -0.03523194 0.033042978
-0.036912162 -0.035185967 0.032953113
-0.034879353 -0.035184201 0.032874309
-0.033044998 -0.035371352 0.032994427
-0.031056555 -0.035174105 0.032673597
-0.028923575 -0.035278603 0.032932088
-0.027216749 -0.035262093 0.032779906
-0.025098672 -0.035190474 0.032690678
-0.023166578 -0.03532825 0.032923825
-0.021171199 -0.035041407 0.032860518
-0.018790171 -0.035220336 0.033048049
-0.017084399 -0.03517472 0.03288861
-0.015002802 -0.035267036 0.032958973
-0.013118102 -0.03520726 0.03288988
-0.011136485 -0.035293981 0.033126745
-0.0089494633 -0.035197664 0.032973304
-0.007044951 -0.035264064 0.033236288
-0.0047928551 -0.035142403 0.03306216
-0.0029857536 -0.035208367 0.033223551
-0.00077245262 -0.035125438 0.033159923
0.00083637284 -0.035301086 0.033080976
0.003021514 -0.035071149 0.033204079
0.0051387823 -0.035369363 0.033088256
0.0070510353 -0.035128992 0.03299588
0.0088869631 -0.035292987 0.032901514
0.010863829 -0.035252046 0.033000685
0.01280169 -0.035056602 0.032948401
0.014953882 -0.035307992 0.03294342
0.016855482 -0.035131704 0.033022996
0.019181063 -0.035162505 0.03283276
0.020889685 -0.035301033 0.032906141
0.023012972 -0.035109892 0.032788921
0.025175169 -0.035356402 0.032809809
0.027048999 -0.035215046 0.032760117
0.029109757 -0.035174698 0.032912776
0.03095375 -0.035369903 0.032794278
0.032982223 -0.035165381 0.033008896
0.03508994 -0.035233609 0.032986708
0.037052173 -0.035186052 0.033064764
0.038951054 -0.035169661 0.033141889
0.040998179 -0.03527189 0.032921076
0.042948075 -0.035295982 0.033202041
0.044965181 -0.035252411 0.032828391
0.046990003 -0.035112504 0.0330351
0.048803069 -0.0352365 0.033130568
0.050778169 -0.035212833 0.032937642
0.052780591 -0.035192993 0.032958712
0.055048663 -0.035183836 0.032982312
0.056844722 -0.034911096 0.032943271
-0.057074822 -0.032913078 0.033001073
-0.055684611 -0.032646563 0.033005364
0.055815279 -0.032643091 0.033050444
0.056965046 -0.03292853 0.033033717
-0.056914348 -0.030912215 0.032928333
-0.05568419 -0.030714832 0.033255868
0.055705845 -0.031289972 0.033016622
0.057114225 -0.031086517 0.032834005
-0.05705345 -0.028910823 0.032992262
-0.055781998 -0.028770262 0.032862172
0.055705845 -0.029303309 0.033016622
0.05699588 -0.029031869 0.033014655
-0.056931347 -0.026989063 0.033215463
-0.055684388 -0.02729474 0.03300561
0.055705845 -0.027316645 0.033016622
0.057105392 -0.026905637 0.0330627
-0.057014082 -0.024878953 0.033096585
-0.055684298 -0.025153996 0.033005692
0.055817306 -0.025187984 0.032939982
0.056937747 -0.024947077 0.03289485
-0.05716718 -0.023066785 0.032980129
-0.055684209 -0.023013253 0.033005774
0.055705845 -0.023343313 0.033016622
0.057111103 -0.023123471 0.032812633
-0.057035174 -0.020994322 0.033128817
-0.055765904 -0.021200171 0.032945637
0.055705845 -0.02135665 0.033016622
0.056992486 -0.021179648 0.032857418
-0.056963697 -0.018989466 0.032949515
-0.055683956 -0.018731764 0.03300599
0.055818304 -0.018966701 0.032837186
0.057129674 -0.019048268 0.033099804
-0.056976102 -0.016992733 0.033133496
-0.055733331 -0.016474385 0.033062857
0.055705845 -0.017383318 0.033016622
0.056904249 -0.016987776 0.033074949
-0.057092831 -0.014966268 0.033124942
-0.055683881 -0.014985424 0.033006057
0.055705845 -0.015396654 0.033016622
0.057074875 -0.014902834 0.032993056
-0.057026949 -0.013116548 0.032933827
-0.055683702 -0.013379866 0.033006251
0.055781435 -0.013108404 0.033043265
0.0569649 -0.013027332 0.03281014
-0.056689437 -0.011441365 0.032926209
-0.054871984 -0.011528024 0.03302484
-0.053011306 -0.011307127 0.032814536
-0.051254876 -0.011485678 0.033133473
-0.049211826 -0.011155111 0.03314608
-0.047220886 -0.011156864 0.032992736
-0.045176566 -0.011406528 0.032938831
-0.042885642 -0.011158109 0.03292536
-0.041050136 -0.011168502 0.033290543
-0.039181277 -0.011136234 0.032801632
-0.03741331 -0.010759856 0.033121902
0.055705845 -0.011423323 0.033016622
0.057171624 -0.010908519 0.032905474
-0.037422132 -0.0086925477 0.032976612
0.055705845 -0.0094366595 0.033016622
0.056996319 -0.0088563291 0.032836352
-0.037434518 -0.0068573817 0.03307303
0.055781953 -0.0072439974 0.032976627
0.057021454 -0.0069438592 0.03289723
-0.037434518 -0.0051430361 0.03307303
0.055705845 -0.0054633291 0.033016622
0.056876473 -0.0049447459 0.032921284
-0.037434518 -0.0028572425 0.03307303
0.055705845 -0.0034766637 0.033016622
0.057057317 -0.0029935448 0.03297504
-0.037434787 -0.0011428948 0.033073016
0.055820957 -0.0014976272 0.033158842
0.057186265 -0.0010378073 0.033042811
-0.037434518 0.00057144847 0.03307303
0.055705845 0.00099333259 0.033016622
0.057062354 0.00084646908 0.03303555
-0.037434518 0.0028572425 0.03307303
0.055822 0.0034909318 0.033061717
0.057062235 0.0029921022 0.033011645
-0.037434518 0.0051430361 0.03307303
0.055705845 0.0054633291 0.033016622
0.056951817 0.0049883323 0.032952398
-0.037434518 0.0068573817 0.03307303
0.055705845 0.0074499939 0.033016622
0.056927085 0.006936227 0.03291456
-0.037435759 0.0086798174 0.032982986
0.055822946 0.0088309161 0.032970224
0.057111237 0.0089371083 0.032873519
-0.056746226 0.011512744 0.032927047
-0.054834887 0.011406142 0.033144303
-0.052878454 0.011266217 0.032726184
-0.051181339 0.011289597 0.033042252
-0.049093809 0.011279523 0.033141859
-0.047100753 0.011280864 0.033003278
-0.044893969 0.01143168 0.032889869
-0.042761683 0.011280517 0.03291088
-0.040917784 0.011296831 0.033301786
-0.039036892 0.011293998 0.033103254
-0.037437141 0.010737643 0.03313268
0.055705845 0.011423323 0.033016622
0.05710448 0.011025525 0.032902308
-0.05713382 0.01307409 0.032932457
-0.055352118 0.012705152 0.033061709
-0.052911997 0.012038132 0.033500057
-0.051180914 0.012040198 0.033253677
-0.042964935 0.0120679 0.033369593
0.05582387 0.013044917 0.032883871
0.057037611 0.013032826 0.032833375
-0.057073601 0.014987904 0.03313138
-0.055683553 0.014985476 0.033006445
0.055705845 0.015396654 0.033016622
0.057075471 0.014875651 0.03291579
-0.057072755 0.016987238 0.033188667
-0.05577001 0.016612228 0.032895532
0.055824719 0.017136833 0.03280225
0.056910072 0.016991677 0.03317406
-0.056963511 0.018950615 0.032949939
-0.055683881 0.018731782 0.033006057
0.055705845 0.019369984 0.033016622
0.05711896 0.019050404 0.033069797
-0.05698565 0.020984879 0.033103764
-0.055770721 0.02071554 0.03284698
0.055825531 0.021116588 0.033238273
0.05709913 0.021091003 0.032861717
-0.057153601 0.02307559 0.032988399
-0.05577141 0.023331661 0.033140406
0.055705845 0.023343313 0.033016622
0.057130959 0.023038946 0.032838617
-0.05717577 0.025025219 0.033005867
-0.055684209 0.025154019 0.033005774
0.055826433 0.024993464 0.03315166
0.056953091 0.024889745 0.032842815
-0.056958877 0.026969235 0.033190798
-0.055772148 0.027318981 0.033088326
0.055705845 0.027316645 0.033016622
0.057029475 0.027005233 0.033038229
-0.056981973 0.029005527 0.032957334
-0.055684786 0.029226488 0.032755159
0.05582732 0.028774736 0.033069443
0.057069588 0.02909065 0.033066731
-0.057057224 0.030983074 0.03294545
-0.055790257 0.030672861 0.033195537
0.055828176 0.031474177 0.032991264
0.057003934 0.031107567 0.032914538
-0.056948382 0.033009984 0.033014726
-0.055773385 0.0330001 0.032991283
0.055705845 0.03327664 0.033016622
0.057071622 0.033062067 0.033000361
-0.057060998 0.034791585 0.033065878
-0.054021262 0.031019485 0.03064644
-0.05225559 0.031233395 0.030604526
-0.050365843 0.028116524 0.028671391
-0.048913557 0.031221809 0.03060605
-0.047389697 0.027614724 0.028510481
-0.045655675 0.029607972 0.029744405
-0.035893805 0.02539002 0.027375525
-0.032332875 0.029859129 0.03003314
-0.025878033 0.026777493 0.028174128
-0.028116247 0.029237447 0.029811332
-0.023154911 0.026812648 0.028057422
-0.026698384 0.030460972 0.030087065
-0.019271392 0.025238222 0.027222088
-0.022857964 0.029923705 0.029816829
-0.013633387 0.022037301 0.025498429
-0.018973609 0.028614547 0.028960632
-0.012756509 0.023400975 0.02625489
-0.015675174 0.027706552 0.028593559
-0.012055395 0.025286674 0.027286876
-0.0083712619 0.020314017 0.024556382
-0.012367598 0.03031946 0.030089896
-0.008947961 0.02620047 0.027929807
-0.0087183034 0.027848817 0.028725233
-0.0066044461 0.026066668 0.027779665
-0.0059593497 0.02780498 0.028872199
-0.0037042152 0.020050723 0.02472345
-0.0031412793 0.029857771 0.030036625
-0.002554724 0.015023424 0.021870177
-3.395382e-05 0.029846834 0.03004705
-0.00058365043 0.020041006 0.024689194
0.0031468687 0.030051218 0.029980129
0.00065960502 0.020244904 0.02441084
0.0071969307 0.031659093 0.030964868
0.0032124151 0.021966292 0.025508437
0.0082718413 0.028544864 0.029060371
0.0058225775 0.023411734 0.026155502
0.010453674 0.027713876 0.028740123
0.0098820189 0.025472332 0.027311128
0.0088049639 0.023172719 0.026075765
0.014920911 0.027719852 0.028537806
0.012021002 0.024524353 0.026771072
0.020775523 0.030327722 0.030095112
0.015723802 0.02529699 0.027190667
0.024247669 0.03083827 0.030241456
0.027814401 0.025958249 0.027926041
0.036843963 0.030186463 0.030240325
0.039995831 0.022754954 0.026269579
0.039775047 0.030152813 0.030340074
0.041799273 0.025875803 0.027779851
0.043033943 0.030603545 0.030382283
0.04429391 0.025727538 0.027863326
0.046225626 0.030927457 0.030460346
0.046844695 0.027068524 0.028582316
0.049174 0.030589093 0.030447872
0.048651993 0.02493535 0.027324852
0.053204585 0.031389564 0.030808503
0.054785147 0.031044448 0.030819491
-0.056320667 0.036198854 0.032886565
-0.054759722 0.036243994 0.033000939
-0.053002264 0.036280155 0.03294982
-0.051038656 0.036273375 0.033143535
-0.049025789 0.036274824 0.032861087
-0.046980686 0.036248732 0.03306881
-0.045145169 0.036280718 0.032932054
-0.043027282 0.036275346 0.033120833
-0.040863071 0.036275141 0.033044379
-0.038888972 0.03628061 0.03297288
-0.036960363 0.036239374 0.033104248
-0.034909777 0.036296166 0.032932941
-0.032863036 0.036281001 0.033266079
-0.030864459 0.036287971 0.032797568
-0.029069576 0.036246486 0.033007178
-0.027041577 0.036275234 0.03294345
-0.024964485 0.036288071 0.032985006
-0.022776239 0.036275174 0.032986879
-0.020978114 0.036250066 0.033152085
-0.019058082 0.036275458 0.032952569
-0.01691759 0.036281329 0.033131152
-0.01496677 0.036288358 0.033063032
-0.013005278 0.036250185 0.032837588
-0.010988316 0.036281358 0.033084005
-0.0089284368 0.036281236 0.032904588
-0.0068867332 0.036281224 0.032908529
-0.0050085043 0.036250621 0.033283982
-0.0031819111 0.036288153 0.032806478
-0.0011631612 0.036288239 0.033176515
0.0010308673 0.036275502 0.033015311
0.0030019996 0.036250919 0.033001762
0.0048518134 0.036281507 0.03302246
0.0069837165 0.03627554 0.032900378
0.0091110328 0.036288425 0.032996081
0.011048861 0.036255665 0.032969546
0.012855428 0.036281362 0.033068866
0.015050864 0.036270291 0.033073552
0.017273303 0.036281459 0.03307505
0.019121936 0.036246408 0.032971758
0.020788172 0.036306296 0.032945476
0.022794524 0.03627542 0.033005446
0.024971412 0.036275439 0.032949008
0.027111759 0.036281437 0.032888077
0.029028242 0.036246337 0.033140764
0.031096203 0.036280461 0.033030923
0.033236366 0.03628809 0.03316319
0.035152785 0.036274869 0.032877769
0.037088208 0.036242545 0.033180252
0.038962364 0.036288138 0.032868445
0.041068181 0.036270123 0.033099361
0.043107908 0.036296029 0.033079952
0.044832356 0.036250006 0.032961879
0.046869311 0.036264673 0.032993577
0.049197998 0.036269862 0.032968711
0.051164567 0.036279541 0.033060424
0.053030241 0.036249656 0.03294025
0.054747008 0.036279701 0.033047188
0.056346476 0.036199629 0.033250391
-0.056378566 -0.036278918 0.035085324
-0.055028554 -0.036176194 0.034984685
-0.053216476 -0.036233433 0.035117075
-0.051088993 -0.036215436 0.03498695
-0.049046025 -0.036214571 0.035086043
-0.046897974 -0.0361664 0.035033341
-0.045107264 -0.036233556 0.03515023
-0.043005809 -0.036208879 0.035034578
-0.041072551 -0.036223628 0.035216663
-0.038804378 -0.03621557 0.035034671
-0.036905047 -0.036180496 0.035302427
-0.035046838 -0.036223423 0.03496594
-0.033025738 -0.036244672 0.035396319
-0.030981567 -0.03622321 0.03486079
-0.029110342 -0.036175616 0.035073113
-0.027084716 -0.036214937 0.035136878
-0.024979111 -0.036214896 0.035131365
-0.022855354 -0.036222704 0.035188701
-0.020913484 -0.036174722 0.034939103
-0.018979955 -0.036223259 0.035114635
-0.016847307 -0.03623265 0.035182282
-0.01483102 -0.0362323 0.035203416
-0.01301106 -0.036180355 0.034828376
-0.011071296 -0.036214691 0.035006411
-0.009012416 -0.036214642 0.035099141
-0.0068360143 -0.036232501 0.035115648
-0.0049041333 -0.036187369 0.035307709
-0.0031468035 -0.036222674 0.034850616
-0.0011052635 -0.036222648 0.035190504
0.00096124201 -0.036222707 0.035190672
0.0029285427 -0.036180716 0.034955326
0.0050006974 -0.036223106 0.035165966
0.0070380014 -0.036215015 0.034933787
0.0091245938 -0.036222905 0.035034109
0.011003044 -0.036180455 0.035165232
0.012995112 -0.036222883 0.035101984
0.015183473 -0.036222838 0.035127271
0.017223785 -0.036232192 0.034961455
0.01884705 -0.036187939 0.035172366
0.020754246 -0.036214825 0.035174634
0.022909336 -0.03621478 0.035153743
0.024942189 -0.036223333 0.035070777
0.02709683 -0.036207959 0.034993477
0.029059319 -0.036197223 0.035076275
0.030927114 -0.03622321 0.035141461
0.033103604 -0.03621465 0.035175774
0.035204526 -0.036223259 0.035091162
0.036857169 -0.036197536 0.035190918
0.038903221 -0.036197275 0.035024166
0.041216433 -0.036215831 0.035220485
0.043206684 -0.036223695 0.035093516
0.044859376 -0.036181074 0.034968879
0.046857599 -0.036208309 0.035095271
0.049002223 -0.036224596 0.035058312
0.051050678 -0.036223587 0.035111174
0.053118058 -0.03617157 0.03491478
0.054965936 -0.036176916 0.035039254
0.056836247 -0.036120117 0.035205185
-0.056767464 -0.034847517 0.034965053
-0.054936804 -0.035162266 0.035005759
-0.05293775 -0.035288248 0.034921415
-0.050881863 -0.035169423 0.034888837
-0.048937719 -0.035280045 0.034961641
-0.046725973 -0.035245523 0.034925245
-0.044827253 -0.035214636 0.034881011
-0.042824168 -0.035254382 0.035262585
-0.040861677 -0.035306312 0.034919363
-0.038939521 -0.035224423 0.034914799
-0.036770564 -0.035116393 0.035257399
-0.034895524 -0.035262447 0.034671023
-0.032911882 -0.035271317 0.035019264
-0.030793233 -0.035113867 0.034805529
-0.028904317 -0.035200633 0.034819286
-0.026948474 -0.035286881 0.034926981
-0.025053684 -0.035033315 0.034806669
-0.023288094 -0.035268925 0.035010442
-0.021194329 -0.035113208 0.034887251
-0.01901684 -0.035071284 0.034968939
-0.016866857 -0.035282537 0.034906752
-0.015164697 -0.035199169 0.034838419
-0.013181764 -0.035271231 0.034982514
-0.011051254 -0.035052732 0.034793511
-0.0090965098 -0.035164975 0.034969956
-0.0069888355 -0.035208158 0.035047553
-0.004818677 -0.035149828 0.034999508
-0.0029691528 -0.035300847 0.034946464
-0.00084931002 -0.035181329 0.0350741
0.00071893213 -0.035299551 0.034826234
0.002854388 -0.035153683 0.035060603
0.0050658458 -0.035153151 0.034951799
0.0068808282 -0.035184182 0.034914732
0.0090721967 -0.035241921 0.034909774
0.0108752 -0.03519043 0.034938101
0.013152089 -0.035242118 0.034982488
0.014834306 -0.035183918 0.03478438
0.016949341 -0.035146169 0.034898747
0.019111853 -0.035043761 0.034920514
0.02083957 -0.035222482 0.034965314
0.023421768 -0.035203531 0.034906834
0.025158601 -0.035200585 0.034884259
0.026892535 -0.035189815 0.034789424
0.029317958 -0.035168987 0.034814179
0.030896448 -0.03527848 0.034900375
0.032755025 -0.03524847 0.034879446
0.035132553 -0.035240114 0.035030782
0.037162103 -0.035230987 0.034928828
0.039176822 -0.035174958 0.035292465
0.040938288 -0.035327539 0.034905039
0.042826705 -0.035246287 0.034940716
0.044815496 -0.03516927 0.034983467
0.046804391 -0.035280585 0.034955781
0.049093641 -0.035285436 0.034960441
0.051054887 -0.035267413 0.034889236
0.053199466 -0.035282012 0.034914598
0.055313218 -0.035128899 0.034935743
0.057119824 -0.034654081 0.035158779
-0.057033904 -0.033034906 0.035048924
-0.055681765 -0.032948971 0.035277277
0.055751771 -0.032790314 0.035043389
0.056919731 -0.032720469 0.034959842
-0.05699541 -0.031005332 0.035024319
-0.055681765 -0.030788381 0.035277277
0.055708557 -0.031016124 0.035008401
0.056975245 -0.030832043 0.035014708
-0.057076108 -0.029013809 0.034947619
-0.055763505 -0.028447244 0.035218883
0.055708557 -0.029046847 0.035008401
0.056878664 -0.028926933 0.034955174
-0.056927335 -0.027149096 0.035137903
-0.055681407 -0.027007444 0.035277635
0.055708557 -0.027077569 0.035008401
0.056943551 -0.027167222 0.034851111
-0.056856863 -0.024931958 0.035126489
-0.055681407 -0.025387 0.035277635
0.055752631 -0.025095677 0.034984469
0.056920867 -0.025049847 0.034968141
-0.056939244 -0.022942131 0.035172261
-0.055681229 -0.023226442 0.035277814
0.055708557 -0.023139013 0.035008401
0.057024654 -0.022958403 0.034941982
-0.056947153 -0.020985831 0.035124753
-0.055763852 -0.021329097 0.035131305
0.055708557 -0.021169735 0.035008401
0.056846354 -0.02099999 0.035059538
-0.057068437 -0.01908588 0.035074003
-0.05568105 -0.018905278 0.035277992
0.055782728 -0.018987665 0.035094552
0.057095878 -0.01907168 0.034997355
-0.056940194 -0.017054068 0.035033245
-0.055806004 -0.016376302 0.035259534
0.055708557 -0.017231181 0.035008401
0.056921277 -0.017038723 0.034810651
-0.057054173 -0.015010421 0.034977298
-0.055680692 -0.01458412 0.03527835
0.055708557 -0.015261902 0.035008401
0.056964345 -0.015044068 0.034992646
-0.056735981 -0.01305963 0.035131082
-0.055680692 -0.012963664 0.03527835
0.055783272 -0.013030052 0.035002042
0.05694253 -0.012967946 0.034925357
-0.056910109 -0.011551363 0.035040177
-0.055242047 -0.011409673 0.034996282
-0.053146433 -0.01129897 0.034896683
-0.051160362 -0.011351536 0.03512647
-0.048919782 -0.011027023 0.035053976
-0.046884805 -0.011233703 0.035162628
-0.045335319 -0.011216015 0.034936763
-0.043389011 -0.011041748 0.034885217
-0.041180074 -0.01102291 0.035174865
-0.038707703 -0.011063389 0.034802448
-0.037523188 -0.010900559 0.035369989
0.055708557 -0.011323347 0.035008401
0.056929328 -0.010979393 0.034979492
-0.037434742 -0.0085717104 0.035358801
0.055708557 -0.0093540689 0.035008401
0.056797981 -0.0089626741 0.034983993
-0.037434757 -0.0068573691 0.035358794
0.055783823 -0.0072002313 0.034915403
0.057038493 -0.0070163384 0.034795493
-0.037434489 -0.0051430361 0.035358809
0.055708557 -0.0054155136 0.035008401
0.056937903 -0.0049314806 0.034934334
-0.037434489 -0.0028572425 0.035358809
0.055708557 -0.0034462358 0.035008401
0.057036571 -0.0030448199 0.035001006
-0.037434489 -0.0011428969 0.035358809
0.055754047 -0.0014826775 0.03502224
0.056974377 -0.0011060107 0.034999188
-0.037434489 0.00057144847 0.035358809
0.055708557 0.00098463893 0.035008401
0.056911767 0.00084934896 0.034973022
-0.037434489 0.0028572422 0.035358809
0.055785052 0.0034657121 0.035140567
0.056988593 0.0030177932 0.035021089
-0.037434489 0.0051430361 0.035358809
0.055708557 0.0054155136 0.035008401
0.057056554 0.0050217183 0.034937583
-0.037434489 0.0068573817 0.035358809
0.055708557 0.007384792 0.035008401
0.056989215 0.0069074607 0.034815479
-0.037434489 0.0085717272 0.035358809
0.055785708 0.008977701 0.035057385
0.0568785 0.0089564743 0.034957308
-0.056857865 0.011523488 0.035254195
-0.055126283 0.011532252 0.035122734
-0.053209312 0.011441986 0.034976948
-0.05109055 0.011453566 0.035137758
-0.04910801 0.011130422 0.035220619
-0.047193438 0.01118315 0.034990735
-0.045153346 0.011324281 0.035160676
-0.043462157 0.011383088 0.034577642
-0.041049287 0.011149764 0.035180338
-0.038801156 0.011188805 0.034889039
-0.037557922 0.010974298 0.035224617
0.055708557 0.011323347 0.035008401
0.056828499 0.011072016 0.034961928
-0.056791876 0.013055702 0.035114814
-0.055854432 0.012797936 0.035108175
0.055786304 0.013088177 0.034978885
0.05702826 0.012957714 0.034901854
-0.05692593 0.015034327 0.035026681
-0.055680692 0.01458412 0.03527835
0.055708557 0.015261902 0.035008401
0.056965105 0.01499329 0.034959722
-0.057018373 0.017032426 0.035038821
-0.055811659 0.016699672 0.035046581
0.055786885 0.0171175 0.034904689
0.056970824 0.017050257 0.034955382
-0.057060339 0.019054506 0.035065297
-0.055680871 0.018905308 0.035278171
0.055708557 0.019200457 0.035008401
0.057098862 0.018996276 0.034933943
-0.056987502 0.020984426 0.035157919
-0.055812716 0.020733679 0.034947354
0.055755865 0.021111012 0.035006691
0.056962382 0.020996388 0.03500396
-0.05693239 0.02295362 0.035168435
-0.055813611 0.023597442 0.035362478
0.055708557 0.023139013 0.035008401
0.057020761 0.023013858 0.034915399
-0.056932606 0.025007471 0.035106324
-0.055681229 0.025387041 0.035277814
0.05578807 0.024957925 0.035101127
0.05695685 0.025025265 0.034960464
-0.056908678 0.027074009 0.035131045
-0.055859029 0.027247425 0.035254762
0.055708557 0.027077571 0.035008401
0.056974404 0.027102839 0.034910936
-0.057070263 0.028980272 0.034943104
-0.055681407 0.028627891 0.035277635
0.055788644 0.028779961 0.035029434
0.056985818 0.028984265 0.034966365
-0.057073489 0.030973803 0.035027258
-0.055815466 0.030699156 0.035163242
0.05578921 0.031230211 0.034961294
0.056907516 0.030855635 0.034983072
-0.056987807 0.033041265 0.035063196
-0.055816345 0.033328071 0.035070356
0.055708557 0.032985404 0.035008401
0.057026476 0.032885741 0.035009902
-0.054202572 0.030807534 0.033698209
-0.051093172 0.029442316 0.033056114
-0.044892564 0.02363361 0.031341154
-0.041953813 0.022543231 0.031087803
-0.043291595 0.027474806 0.03254601
-0.037561778 0.022509485 0.030866405
-0.036970947 0.024593601 0.031729102
-0.037530147 0.028312329 0.032917712
-0.028844884 0.019654831 0.030039277
-0.032353528 0.027155472 0.032551683
-0.03158392 0.028991863 0.032943953
-0.020129211 0.017568611 0.029277895
-0.028116107 0.02962568 0.033130161
-0.019696837 0.022470692 0.030860428
-0.017490612 0.022427265 0.030924266
-0.021321224 0.029042372 0.033010937
-0.010579807 0.019505138 0.03000422
-0.011117279 0.022601765 0.031009376
-0.014344397 0.028232593 0.03273074
-0.0062831487 0.022328727 0.030997321
-0.0059081935 0.024619086 0.03155183
-0.0082537401 0.028893284 0.032908536
-0.019229064 0.025672084 0.031739265
8.9351714e-05 0.024043474 0.031320304
-0.013160451 0.029698623 0.03321477
-0.0049243527 0.016516451 0.028533848
-0.0037081044 0.020905012 0.029925367
-0.0093976203 0.027446259 0.032179821
0.013622545 0.019433502 0.029382434
-0.0060130199 0.02765359 0.032074515
0.0023517057 0.017511871 0.028552882
0.0040473933 0.021742383 0.030107671
0.00071451068 0.029322041 0.032841068
0.014627136 0.02820476 0.032281537
-0.00018599071 0.025660183 0.03129568
0.016627852 0.030446649 0.033179022
0.01173644 0.023915984 0.030480338
0.013885587 0.024996514 0.030896047
0.025030959 0.025792584 0.031257678
0.010454335 0.028065894 0.032050207
0.029482778 0.025434127 0.030929742
0.016827185 0.030144995 0.032850582
0.022476155 0.026640262 0.031176945
0.023461178 0.024989847 0.030590383
0.021002769 0.029867137 0.032312639
0.037112884 0.026290532 0.030754607
0.028541168 0.031937238 0.033602346
0.031298496 0.027952686 0.031655651
0.03124325 0.025836689 0.030695474
0.030299777 0.030296559 0.032623369
0.044759911 0.028764088 0.031763967
0.02456519 0.026400272 0.03062374
0.04781606 0.03090523 0.032819621
0.04147809 0.02875443 0.031626333
0.042698584 0.02828758 0.031183831
0.053498264 0.031507012 0.032956917
0.047701642 0.032494657 0.0335044
0.056880005 0.034895457 0.03500507
-0.056530118 0.036198527 0.034906551
-0.054910351 0.03624953 0.03506612
-0.053116269 0.036280628 0.035177905
-0.051132929 0.036280051 0.035072438
-0.049018856 0.036274668 0.035084926
-0.04687329 0.036238696 0.035031002
-0.045094561 0.036287185 0.035150714
-0.043062247 0.036274582 0.035113584
-0.040990777 0.036275167 0.03527981
-0.03879131 0.036274686 0.035034727
-0.036974877 0.036261976 0.035194084
-0.035105046 0.036275234 0.034990888
-0.033091862 0.03628809 0.035269406
-0.030971076 0.036280971 0.034855925
-0.029072097 0.036242511 0.035157911
-0.027071733 0.036275275 0.035135984
-0.024921192 0.036269955 0.035049837
-0.022842033 0.036281347 0.035182662
-0.020995267 0.036255103 0.035071403
-0.01905128 0.036275357 0.035081159
-0.016920112 0.036281414 0.035246987
-0.01488639 0.036281418 0.035099089
-0.01300251 0.036250629 0.034821432
-0.011119853 0.036280975 0.035092294
-0.0089301411 0.036281295 0.035022877
-0.0068523935 0.036270317 0.035155132
-0.0048965551 0.036255587 0.035308551
-0.0030590398 0.03627548 0.034895476
-0.0010227395 0.03628803 0.035155565
0.00095972832 0.036281303 0.035184603
0.00280209 0.036250766 0.034963798
0.0048171557 0.036265992 0.035196446
0.0070424741 0.036288369 0.034923512
0.009117906 0.036281627 0.035028234
0.010987198 0.036251005 0.03496011
0.012856521 0.036281504 0.035185844
0.014978809 0.036275458 0.035241432
0.017045293 0.036288112 0.034992263
0.019054966 0.036246568 0.035180949
0.020898778 0.036280703 0.03505772
0.022896836 0.036275327 0.035152968
0.024978951 0.036275346 0.035144839
0.027084222 0.036270209 0.034987435
0.029049749 0.036261491 0.035089463
0.03089143 0.036275338 0.035051856
0.033024617 0.036281124 0.035092518
0.035189237 0.036280982 0.035084497
0.036858905 0.036255494 0.035288677
0.038888343 0.036265489 0.035090029
0.041199811 0.036274508 0.03523089
0.043247599 0.036275268 0.035021778
0.044929314 0.036254738 0.035043616
0.046813305 0.036275223 0.035175562
0.048987217 0.036274441 0.035135921
0.051025998 0.036280539 0.035103932
0.053092271 0.036241077 0.03491988
0.054997936 0.036279626 0.035161536
0.056528263 0.03620553 0.034590229
-0.056480922 -0.036279172 0.036934853
-0.055130396 -0.036155846 0.036920685
-0.053156003 -0.036170557 0.037107259
-0.050998207 -0.036171194 0.037028879
-0.048939206 -0.03618113 0.036874186
-0.047081232 -0.036152568 0.037156034
-0.045286424 -0.036181223 0.037037589
-0.043189429 -0.036175117 0.037080556
-0.04100113 -0.036175177 0.037014652
-0.038819771 -0.036170542 0.03705103
-0.037030037 -0.036173057 0.036930002
-0.035276044 -0.03617521 0.037054837
-0.033011809 -0.036170632 0.036983125
-0.030978559 -0.036181308 0.03681789
-0.029048378 -0.036149114 0.036993459
-0.027089829 -0.036180515 0.037185069
-0.024932073 -0.036187846 0.036814738
-0.022792974 -0.036175001 0.037064698
-0.020898966 -0.036156997 0.036994327
-0.019114718 -0.036180466 0.037083644
-0.017020205 -0.036174901 0.036915183
-0.014970072 -0.036180884 0.037017416
-0.012871942 -0.036145933 0.036961723
-0.01105154 -0.036180425 0.037040528
-0.0089208931 -0.036169827 0.037048552
-0.0067909271 -0.036187477 0.036875654
-0.0048998739 -0.036148466 0.037124101
-0.0029190828 -0.036180224 0.036817662
-0.00090677786 -0.036180269 0.037007567
0.0011057372 -0.036180347 0.03722655
0.0029772178 -0.03615243 0.036742136
0.0048968205 -0.036180358 0.037014607
0.0069810813 -0.036174748 0.03690007
0.0090316106 -0.036170285 0.037116818
0.011071177 -0.036153205 0.037142366
0.012972348 -0.036175214 0.036915734
0.015111155 -0.036180258 0.037011608
0.017112454 -0.036180783 0.03691202
0.018867422 -0.036156878 0.036937363
0.02065455 -0.036180209 0.037059586
0.023024147 -0.0361811 0.037104789
0.02503947 -0.036180306 0.036842585
0.027156791 -0.036174871 0.03713933
0.028901381 -0.036153026 0.03671569
0.030864218 -0.036174916 0.037018113
0.03293797 -0.036181986 0.037115026
0.035105288 -0.036181089 0.036932509
0.036867946 -0.036149826 0.036949851
0.038897987 -0.036180269 0.037230652
0.040956195 -0.036175128 0.037032578
0.043085545 -0.036175918 0.037136964
0.044943515 -0.036158428 0.036738969
0.04698782 -0.036166977 0.037134219
0.049018163 -0.036181726 0.036878403
0.051002558 -0.036171474 0.037134834
0.052916944 -0.036150511 0.036843877
0.054858293 -0.036154468 0.037159979
0.056401893 -0.036120355 0.036538959
-0.056849051 -0.034777217 0.036866911
-0.05503463 -0.035242163 0.037025701
-0.052931506 -0.035258006 0.037032675
-0.050887253 -0.035207994 0.037151653
-0.048923414 -0.03507068 0.037190445
-0.046994779 -0.035286549 0.037115846
-0.044975046 -0.035197165 0.037060812
-0.042715516 -0.035184972 0.03713081
-0.040830605 -0.035238653 0.036938984
-0.039200965 -0.035213351 0.037242796
-0.036954872 -0.035182383 0.036898725
-0.034801226 -0.035222657 0.036909405
-0.033046581 -0.035157282 0.036995471
-0.03096663 -0.035186037 0.037087098
-0.029019378 -0.03514269 0.036867496
-0.027157301 -0.035229605 0.037047662
-0.024980538 -0.035192542 0.03700434
-0.023026088 -0.035245236 0.037065834
-0.021143813 -0.035142615 0.037164744
-0.01906715 -0.035193048 0.037032884
-0.016761752 -0.035258546 0.037133269
-0.015070789 -0.035129797 0.037182577
-0.013046476 -0.035157591 0.037029345
-0.011090242 -0.035275437 0.037215788
-0.0091680549 -0.035150293 0.037060257
-0.0067992769 -0.035177298 0.03701828
-0.0050934707 -0.035211813 0.036885206
-0.0029187864 -0.035102904 0.037131675
-0.0010435393 -0.035181068 0.036944296
0.0011369978 -0.035152946 0.037128042
0.0028817749 -0.035181932 0.036900979
0.0051198779 -0.035181012 0.037053186
0.0069535915 -0.03519465 0.037135459
0.0090122158 -0.035308644 0.037040554
0.011092301 -0.03509916 0.037082672
0.013137324 -0.03518131 0.037196774
0.014791361 -0.035117816 0.037085917
0.016790871 -0.035265386 0.037089974
0.019166395 -0.035143085 0.03718416
0.020999601 -0.035254136 0.036982786
0.023053225 -0.035103481 0.0369583
0.024999676 -0.035230003 0.037144016
0.026942037 -0.035220306 0.03687318
0.029143618 -0.035143722 0.037011754
0.031220442 -0.035219382 0.036944371
0.032979198 -0.035145257 0.036919933
0.034947596 -0.035160065 0.037095111
0.036991417 -0.03526599 0.037076365
0.039167196 -0.035215802 0.037088323
0.041136801 -0.035153486 0.037094343
0.042828362 -0.035213258 0.037188958
0.044632711 -0.035204824 0.037004512
0.046796419 -0.035208032 0.037168778
0.049013391 -0.035241641 0.037043456
0.050896004 -0.035259861 0.037011888
0.052794438 -0.035252124 0.036921047
0.054996405 -0.035136156 0.037024461
0.056831285 -0.0350799 0.036981881
-0.057075698 -0.03292156 0.037124444
-0.055679679 -0.033153974 0.036817193
0.055817775 -0.032354347 0.037125733
0.05696889 -0.033000641 0.036891878
-0.056850553 -0.030935118 0.037022915
-0.055679679 -0.030979943 0.036817193
0.055710912 -0.030746602 0.036969095
0.057022836 -0.031142993 0.037097104
-0.056991994 -0.029101392 0.037010998
-0.055803686 -0.028445927 0.036998581
0.055710912 -0.028794438 0.036969095
0.057008449 -0.029086964 0.036981773
-0.057051688 -0.027082894 0.036920834
-0.055679321 -0.02663197 0.036817521
0.055710912 -0.026842274 0.036969095
0.057081308 -0.026894348 0.036989197
-0.057020247 -0.024957029 0.037015073
-0.055679321 -0.025001442 0.036817521
0.055819936 -0.024967514 0.036941599
0.056948163 -0.024966167 0.036956381
-0.057122633 -0.022988053 0.037060358
-0.055679321 -0.023370914 0.036817521
0.055710912 -0.022937942 0.036969095
0.057061862 -0.023189045 0.036883712
-0.056976013 -0.021041164 0.037121039
-0.055804312 -0.021526223 0.036834139
0.055710912 -0.020985775 0.036969095
0.057036467 -0.021234242 0.036877926
-0.056976616 -0.019084534 0.03713391
-0.055679023 -0.019022904 0.036817819
0.055784315 -0.018876314 0.03705395
0.057067353 -0.018894525 0.036929298
-0.056997299 -0.017052097 0.037019663
-0.055762857 -0.016569452 0.036942542
0.055710912 -0.017081447 0.036969095
0.056981329 -0.016805951 0.036953744
-0.057089701 -0.015119432 0.037123933
-0.055678844 -0.014674836 0.036818013
0.055710912 -0.015129281 0.036969095
0.057082321 -0.015023325 0.03706374
-0.057039853 -0.013102709 0.036958512
-0.055678666 -0.013044322 0.036818206
0.055784903 -0.012952738 0.036940098
0.056943953 -0.013024375 0.036933605
-0.05690863 -0.011278525 0.03691572
-0.055151399 -0.010814256 0.037120391
-0.052996244 -0.010793831 0.03710277
-0.050894629 -0.0109541 0.037207879
-0.048844397 -0.01107917 0.036739714
-0.047134034 -0.010647858 0.037141025
-0.045217752 -0.010495834 0.037080914
-0.043003537 -0.010639903 0.037312437
-0.041116159 -0.010530452 0.037054919
-0.039218426 -0.01096947 0.036563918
-0.037502687 -0.010435902 0.036903534
0.055710912 -0.01122495 0.036969095
0.057121873 -0.010976841 0.037185859
-0.037245832 -0.0089446288 0.037323575
0.055710912 -0.0092727849 0.036969095
0.057018649 -0.0089818025 0.036879487
-0.037434459 -0.0068573817 0.037073158
0.055822738 -0.0070754029 0.037071098
0.056974206 -0.0070622605 0.037075382
-0.037434459 -0.0051430361 0.037073158
0.055710912 -0.0053684544 0.036969095
0.05695172 -0.0050536073 0.037021905
-0.037434459 -0.0028572422 0.037073158
0.055710912 -0.0034162891 0.036969095
0.057058096 -0.0030036075 0.036951263
-0.037434459 -0.0011428969 0.037073158
0.055823483 -0.0014847047 0.036911596
0.057146389 -0.0011866624 0.036816023
-0.037434459 0.00057144847 0.037073158
0.055710912 0.00097608264 0.036969095
0.057049267 0.00097796076 0.036872983
-0.037434459 0.0028572422 0.037073158
0.055786602 0.0034456579 0.037022222
0.057051592 0.0029682696 0.03694604
-0.037434459 0.0051430361 0.037073158
0.055710912 0.0053684544 0.036969095
0.056999709 0.0050294716 0.036941674
-0.037434459 0.0068573817 0.037073158
0.055710912 0.0073206201 0.036969095
0.056901541 0.0069890157 0.037122585
-0.037270449 0.0089219008 0.037308346
0.055825427 0.0087487558 0.037177984
0.05710024 0.009017095 0.036788404
-0.056904327 0.011373084 0.036877271
-0.055010669 0.010980268 0.037062265
-0.053031757 0.010864442 0.037051268
-0.051277339 0.010984364 0.037351385
-0.049227439 0.010964585 0.037062705
-0.04721674 0.011067787 0.036964878
-0.045108199 0.010605879 0.03711139
-0.043078985 0.010708165 0.036952138
-0.040980861 0.010771472 0.037288487
-0.03939876 0.010920376 0.036352113
-0.037430406 0.010735417 0.036979426
0.055710912 0.01122495 0.036969095
0.057099331 0.011030921 0.037103508
-0.057146378 0.013178352 0.036958769
-0.055853695 0.01282417 0.037085559
0.055826321 0.012928094 0.037028845
0.057005167 0.013023223 0.036912128
-0.057018936 0.01515295 0.03712127
-0.055678666 0.014674863 0.036818206
0.055710912 0.015129281 0.036969095
0.057071276 0.014987508 0.037066374
-0.057112116 0.0170775 0.037110936
-0.055811219 0.016753163 0.036886577
0.055827163 0.016985554 0.036887866
0.056986094 0.016868977 0.0371066
-0.056978669 0.019054977 0.037044592
-0.055679023 0.019022904 0.036817819
0.055710912 0.019033611 0.036969095
