# .PCD v0.7 - Point Cloud Data file format
VERSION 0.7
FIELDS x y z
SIZE 4 4 4
TYPE F F F
COUNT 1 1 1
WIDTH 1236
HEIGHT 1
VIEWPOINT 0 0 0 1 0 0 0
POINTS 1236
DATA ascii
0.011870604 0.012993947 -0.042712301
0.00841513 0.0096275834 -0.043760858
0.026508596 -0.011008477 -0.042885102
0.034574743 -0.023741364 -0.043388814
0.03202771 -0.023852564 -0.043280214
0.043391299 -0.023710161 -0.0087632537
0.045022879 -0.023051541 -0.0089595588
0.046646383 -0.02256814 -0.0092045097
-0.036101162 -0.020925 -0.0095152855
-0.035012931 -0.021466827 -0.0090348572
-0.033098318 -0.021116652 -0.0091736168
-0.03090024 -0.021430617 -0.0090296986
-0.028868705 -0.021195479 -0.0090547055
-0.027195662 -0.021158487 -0.0091423094
-0.025748014 -0.021872349 -0.0099861324
-0.019889235 -0.021906979 -0.0099501312
-0.013477087 -0.021944804 -0.0099104941
-0.0064283609 -0.021986464 -0.0098671317
0.0420128 -0.0016183956 -0.044319049
0.05234798 0.021496598 -0.045121819
0.044666391 0.020342708 -0.045198917
0.047238212 -0.021264818 -0.0088700997
0.048689544 -0.020722454 -0.009051905
0.051342547 -0.013427324 -0.04500699
0.011913758 -0.012943648 -0.045133367
0.04929167 -0.019301642 -0.008752076
0.050793465 -0.018668961 -0.0091603715
0.032556374 0.01299357 -0.050451078
0.031872451 0.015256167 -0.049945034
0.051130891 -0.017240273 -0.0088695539
0.052582696 -0.016550981 -0.00899221
0.052641463 -0.015141227 -0.0088420957
0.054124996 -0.014534295 -0.009258002
0.05346638 -0.013517882 -0.0088607203
0.054578472 -0.012751234 -0.0090885665
0.053738516 -0.011563629 -0.0086389184
0.054982938 -0.011041891 -0.0089654531
0.056358665 -0.010109261 -0.0097254515
0.055556353 -0.0091104312 -0.0090361256
0.056386217 -0.0089079533 -0.0093372166
0.055832308 -0.0068918066 -0.0085049476
0.056661762 -0.0068582715 -0.0090879845
0.0559479 -0.0053756991 -0.0080260634
0.05695875 -0.0048988741 -0.0091511356
0.057192579 -0.0030401065 -0.0091770282
0.057252493 -0.0010746161 -0.0090163359
0.058096737 -0.0013772547 -0.0097792745
0.057219692 0.00092093449 -0.0090147099
0.058114152 0.0010091116 -0.0098825097
0.054092564 0.0010548049 -0.009371724
0.055962086 0.0053752204 -0.0080145001
0.056998767 0.0049329288 -0.0090757916
0.055843096 0.0070802229 -0.0081231399
0.05649858 0.0069940928 -0.0090432977
0.055545256 0.0091625117 -0.0090141417
0.056362372 0.0089263646 -0.0092350543
-0.0074712634 0.016142352 -0.018249542
0.055110235 0.011061031 -0.0089307986
0.056360602 0.010140859 -0.0094410926
0.044803042 0.010425025 -0.0097414274
0.054609735 0.013004788 -0.0092548672
0.045170736 0.013525385 -0.010086011
0.054136306 0.014544867 -0.0092216432
0.041862112 0.017980635 -0.0083565116
0.043052178 0.01740405 -0.0091645122
0.04422785 0.016833961 -0.0099635124
0.044798702 0.017552558 -0.010069331
0.052670475 0.016705176 -0.0090771997
0.039291959 0.019750088 -0.0082317591
0.0411289 0.018957138 -0.009323895
0.034076922 0.011178528 -0.011298304
0.050841089 0.018886698 -0.0089059137
0.052067131 0.018369079 -0.0092607439
-0.036166906 0.021469697 -0.0094663203
-0.034878869 0.021579122 -0.0089102983
-0.032817744 0.021312168 -0.0089936461
-0.031068556 0.021344654 -0.0089402795
-0.028845251 0.021246225 -0.0091393441
-0.027141541 0.021416992 -0.0088216066
0.037256461 0.02101472 -0.0088192821
0.039136928 0.020296395 -0.0097916126
0.046478841 0.021481795 -0.010513884
0.048993781 0.020923117 -0.0089145852
0.050248638 0.020449489 -0.009365499
-0.036256433 0.023421705 -0.0098337531
-0.034906976 0.022838799 -0.0090517821
-0.033043075 0.022368761 -0.0091291023
-0.030664977 0.022446178 -0.0089993849
-0.029003849 0.022390608 -0.0091647347
-0.027130328 0.022498602 -0.0089338673
-0.024849296 0.022503987 -0.0088969953
-0.02287662 0.022295071 -0.0093803108
-0.020781904 0.022574296 -0.0086621791
-0.018915117 0.022435144 -0.0089077652
-0.016774952 0.022348054 -0.0093100369
-0.014573574 0.022624357 -0.0085064471
-0.012016594 0.022154342 -0.0097298622
-0.010717988 0.022325272 -0.0094125867
-0.0089366436 0.02254138 -0.0087857693
-0.0071819425 0.02274863 -0.0081096292
-0.0048187375 0.022208037 -0.0096806586
-0.0028105974 0.022451106 -0.0090890378
-0.00091993809 0.022666615 -0.0083863437
0.0035027266 0.022338176 -0.0098508596
0.0051085353 0.022535561 -0.0095187128
0.0068792105 0.022762749 -0.0092617571
0.0088286996 0.023021944 -0.009082973
0.010964513 0.023314076 -0.0089810789
0.013038456 0.023591563 -0.0088109672
0.024968293 0.023949772 -0.0094767809
0.027031373 0.023886055 -0.0095601678
0.029131111 0.023492277 -0.0089388788
0.031226587 0.023055315 -0.0083786249
0.033213671 0.022579193 -0.0090122521
0.035179656 0.022085041 -0.0096698403
-0.021090016 0.0065203197 -0.023543231
0.032053322 0.020707773 -0.014071436
0.046969447 0.022949578 -0.0091739036
0.048212171 0.022305816 -0.0093554426
-0.03617695 0.025114581 -0.0096513629
-0.035007004 0.024938218 -0.0090528447
0.021524023 0.024049222 -0.009346664
0.022902917 0.024013519 -0.009393394
0.02923888 0.012651776 -0.01349391
0.038814627 0.023353873 -0.0097896568
0.044879764 0.024783432 -0.0091444273
0.046137944 0.024152398 -0.0093656182
-0.036173165 0.026602961 -0.0089779496
-0.035016108 0.026974326 -0.0091531919
0.043601241 0.024755299 -0.016897351
0.040079422 0.014087535 -0.018447652
0.037448615 0.022026345 -0.010387868
0.04074927 0.02702482 -0.0089629069
0.042603344 0.026524238 -0.0090952599
-0.036169499 0.028067574 -0.0083153248
-0.030977856 0.027982548 -0.013522573
-0.02238187 0.027873361 -0.017724127
-0.018038502 0.026950883 -0.021942962
-0.018172497 0.027226979 -0.018691111
-0.016583459 0.027730376 -0.017340187
-0.013325047 0.027358754 -0.018752877
-0.012875825 0.027151508 -0.019992448
-0.01605984 0.027339172 -0.017339643
-0.014256157 0.027929327 -0.017009649
-0.0077271163 0.026587548 -0.022009153
-0.0045549399 0.026561098 -0.021377034
-0.0070236577 0.027031701 -0.018239459
-0.009864985 0.028212547 -0.012513625
-0.0073975078 0.027115984 -0.015931413
-0.002614079 0.027011765 -0.015903579
-0.0014266984 0.028254012 -0.01223824
0.0039163255 0.027001897 -0.015900893
0.00012262104 0.026720498 -0.016944682
0.001248974 0.027339576 -0.014275776
0.0064754374 0.028022636 -0.012478498
0.013137641 0.025910737 -0.018124262
0.010453467 0.026146417 -0.017294018
0.0042723524 0.025566647 -0.016499445
0.0077114538 0.02026888 -0.02724405
0.022254011 0.019161953 -0.028371966
0.014870808 0.029636603 -0.0090966783
0.01715624 0.029773645 -0.0090995682
0.016925842 0.020315886 -0.023627564
0.021105886 0.029959371 -0.0089334417
0.020766383 0.024367813 -0.017407743
0.024954662 0.029885441 -0.0091151576
0.024487464 0.025480727 -0.013026455
0.030822119 0.019257117 -0.018090183
0.035195269 0.02000431 -0.025160402
0.035887826 0.027377846 -0.011171688
0.035427604 0.028715938 -0.0097572813
0.037000913 0.028831366 -0.0089808181
0.038772848 0.028349379 -0.0092926249
-0.034790054 0.030218601 -0.0085589886
-0.033176363 0.030119741 -0.0088635311
-0.031150011 0.030142885 -0.0087291058
-0.029033354 0.030136349 -0.0086163962
-0.026937697 0.03015852 -0.0086613353
-0.024755871 0.030119861 -0.0088120271
-0.023063678 0.030166775 -0.0086806472
-0.020824838 0.030177176 -0.0086377151
-0.018897148 0.030161485 -0.0087560257
-0.017036317 0.03013909 -0.0086786291
-0.014870863 0.030137192 -0.0087319994
-0.01291523 0.030174028 -0.0085803075
-0.010793103 0.030107543 -0.0087264571
-0.0088682845 0.030132711 -0.0087861102
-0.0070035672 0.030150732 -0.0085100336
-0.0049703051 0.030163158 -0.0086411675
-0.0029454697 0.030131388 -0.0086153429
-0.00075198896 0.030078245 -0.0087892422
0.0011845481 0.030139863 -0.0085929427
0.0029951194 0.030193239 -0.0085663088
0.0051003313 0.03019239 -0.0087059457
0.0070810616 0.030240102 -0.0091553284
0.0091220746 0.030379228 -0.0088772513
0.011020336 0.030516008 -0.0091558527
0.013151136 0.03075758 -0.0090176426
0.015072364 0.030840863 -0.0091157453
0.016958812 0.031022325 -0.0091345608
0.019013895 0.031092666 -0.0090204207
0.021327602 0.026460106 -0.014819612
0.023056548 0.03122923 -0.0091662752
0.025012497 0.031160494 -0.0090808915
0.02709054 0.031039307 -0.0090455422
0.028926058 0.030749191 -0.0090332637
0.030837361 0.030466327 -0.0091449823
0.032715589 0.030266345 -0.0092653092
0.034436326 0.030101061 -0.0097810701
0.016325146 -0.030287057 -0.0068851709
0.026860734 -0.030125037 -0.0068596005
-0.034821302 -0.028811743 -0.0069377185
-0.03298803 -0.029104624 -0.006964826
-0.030935397 -0.029115478 -0.0068909726
-0.029105835 -0.029078715 -0.0070798122
-0.027029011 -0.02910834 -0.0070308512
-0.024919098 -0.029114619 -0.0069529181
-0.023048248 -0.02913072 -0.0067956159
-0.021178491 -0.029163698 -0.0066084722
-0.01908776 -0.029130679 -0.0067641134
-0.017043989 -0.029160377 -0.0067502107
-0.01501422 -0.029167034 -0.006741039
-0.013113366 -0.029127305 -0.0068709827
-0.011020887 -0.029094353 -0.0069320882
-0.0089954529 -0.029105499 -0.0068992316
-0.0070989132 -0.029137688 -0.0068438658
-0.0050466456 -0.029096035 -0.0069140196
-0.0029917236 -0.029105244 -0.0068719238
-0.00096791238 -0.029141618 -0.006782148
0.00091963797 -0.029194493 -0.0065810909
0.0029617471 -0.029220048 -0.0066738799
0.0049117897 -0.029290607 -0.0067659826
0.0068561472 -0.029333755 -0.0068473807
0.0088642957 -0.02942354 -0.0069699371
0.01103249 -0.029550511 -0.0070623346
0.012956776 -0.029613912 -0.0070284652
0.015005635 -0.029743649 -0.0072161169
0.017153213 -0.029857771 -0.0072168945
0.019061351 -0.029890716 -0.0073660975
0.020952154 -0.029875273 -0.0073972321
0.023133969 -0.029811248 -0.0072944257
0.025128247 -0.02967174 -0.0069714952
0.026854495 -0.029457584 -0.0065492047
0.028759867 -0.029237056 -0.0067951195
0.030919723 -0.028946757 -0.0069919359
0.032749277 -0.028426955 -0.0069156727
0.034392148 -0.028445214 -0.0069968174
-0.036230594 -0.026832208 -0.0073334575
-0.035050515 -0.02726602 -0.0070142173
0.033215743 -0.027990699 -0.006809175
0.034936436 -0.027624894 -0.0068048481
0.037074734 -0.027120832 -0.0070382836
0.038764961 -0.026525704 -0.0071071442
0.041091844 -0.026088394 -0.0071651936
-0.036227226 -0.025355592 -0.006841898
-0.035102032 -0.024978638 -0.0070229606
0.039350223 -0.025655014 -0.0068464517
0.04109082 -0.025043283 -0.0068536839
0.042773291 -0.024559828 -0.0068802936
-0.036205173 -0.023862682 -0.0063878298
-0.034875616 -0.02284942 -0.0069757537
-0.032981668 -0.022834968 -0.0069019003
-0.031108117 -0.022738278 -0.0066712252
-0.029027551 -0.022628497 -0.0070464648
-0.027087385 -0.022855824 -0.0066713477
-0.024635583 -0.022917105 -0.0071974434
-0.022988608 -0.022963073 -0.0069398452
-0.021619499 -0.023107162 -0.0062767863
-0.019011557 -0.022766884 -0.0076441318
-0.01700601 -0.023013227 -0.0067558885
-0.015506208 -0.02319367 -0.0060553253
-0.012665927 -0.022826308 -0.0074399561
-0.011000276 -0.023029462 -0.0067729354
-0.0098966956 -0.023161449 -0.0063049495
-0.006896317 -0.022751059 -0.0076770633
-0.0051063895 -0.022962164 -0.0069841743
-0.0032790601 -0.02317767 -0.0062767863
0.00071242452 -0.022825362 -0.0074852556
0.0027959347 -0.023073832 -0.0068306625
0.0043353438 -0.023267545 -0.006457895
0.050025649 -0.023342419 -0.042859733
0.040706884 -0.022229642 -0.043326378
0.024080111 0.022626227 -0.044985719
0.016866751 0.018328642 -0.047280032
0.010838997 0.021616744 -0.045676064
0.041822057 -0.023801714 -0.0060721636
0.04336318 -0.023491679 -0.0070511317
0.044977464 -0.022695625 -0.0070348615
0.046540797 -0.022585504 -0.0073215961
-0.034561157 -0.02176784 -0.0079194903
-0.03362447 -0.021915212 -0.0076182485
-0.030409515 -0.021851286 -0.0077739954
-0.029461831 -0.021972254 -0.0074202418
-0.027107656 -0.021780744 -0.0079260468
0.009465307 0.022711068 -0.044621319
0.058443017 -0.012920862 -0.045036424
0.057664275 -0.013612451 -0.045506328
0.052413952 -0.012376085 -0.044964463
0.045552067 -0.021627128 -0.0069318386
0.046990834 -0.020927874 -0.0068821106
0.048338711 -0.020329773 -0.0068592001
0.036549985 0.014964897 -0.050206289
0.032654658 0.021401338 -0.048724122
0.047698025 -0.019674996 -0.0066484115
0.049046185 -0.019027356 -0.007016527
0.050615489 -0.01834779 -0.0074685663
0.04949097 -0.017633235 -0.0066384203
0.050822802 -0.016842842 -0.0068647317
0.052518636 -0.016204268 -0.0076426864
0.051468119 -0.015321396 -0.0067055547
0.052598622 -0.014805753 -0.0070571136
0.051853579 -0.013366282 -0.0065513551
0.05300945 -0.013138749 -0.0067862282
0.054443687 -0.012504831 -0.0072766244
0.053624712 -0.011127556 -0.0068453671
0.054502416 -0.011177522 -0.0071229953
0.053902924 -0.0099281427 -0.0062308311
0.05491114 -0.0091578886 -0.0070583816
0.056122035 -0.0085409433 -0.0077168941
0.055445772 -0.0071743843 -0.0068163346
0.056301221 -0.0067126229 -0.007428681
0.055630933 -0.0052390234 -0.0066855229
0.056376994 -0.0049655158 -0.0071462751
0.055732191 -0.0031179693 -0.0064919069
0.056534287 -0.003237481 -0.0070910035
0.058310363 0.0064799595 -0.013264353
0.056600224 -0.0012268184 -0.0071695112
0.056551598 0.00093947054 -0.0071862517
0.055746302 0.0031178694 -0.0064806566
0.05653587 0.0031834114 -0.0070741056
0.055619624 0.0050924476 -0.0066400161
0.056292977 0.0049209478 -0.0071375058
0.055481251 0.007034169 -0.0066819922
0.056318268 0.0068997219 -0.0073407292
0.053932428 0.0099251829 -0.0062079728
0.054996081 0.0091056842 -0.0069682989
0.056124657 0.008544296 -0.0077082515
0.045363318 0.00750216 -0.010742559
0.054626584 0.011102626 -0.0071833967
-0.026724607 -0.012895584 -0.018847048
0.053101733 0.013138402 -0.0067765969
0.054383952 0.012444321 -0.0069343466
0.051483326 0.01529056 -0.0066110683
0.052822344 0.014899317 -0.0070275785
0.035542794 0.018086839 -0.0096757198
0.04812162 0.017487129 -0.0075976006
0.05233781 0.016369402 -0.0073073506
0.038801845 0.019375086 -0.0064021945
0.04065768 0.018564701 -0.007537961
0.019060774 0.01083215 -0.012496208
0.043994982 0.018340547 -0.0079131238
0.050662972 0.018643055 -0.0074816048
-0.03360045 0.021977127 -0.0077192783
-0.030384809 0.021908104 -0.007866919
0.034935098 0.021567326 -0.0072941585
0.036752831 0.02065134 -0.0069904923
0.038032871 0.020218045 -0.0075871944
0.021142185 0.0074303066 -0.016824313
0.038560785 0.016276961 -0.008636849
0.048697762 0.020717338 -0.0067765987
-0.03620635 0.023824848 -0.0063823164
-0.034873761 0.022917343 -0.0069176471
-0.032913506 0.022854904 -0.006880193
-0.030975791 0.022875804 -0.0066402941
-0.029159617 0.022545224 -0.0072589358
-0.027122116 0.022939492 -0.0068264431
-0.024537336 0.022994138 -0.0072604455
-0.02280876 0.023035578 -0.0070710154
-0.02088353 0.023234278 -0.006249547
-0.018250465 0.022893518 -0.007620275
-0.016717911 0.023084033 -0.0069632232
-0.015210629 0.023265712 -0.006262511
-0.012939453 0.022823952 -0.0078549683
-0.011272967 0.023027502 -0.0071905255
-0.009028852 0.023299262 -0.0062722564
-0.0053914189 0.022960074 -0.0074192286
-0.0029537678 0.023247972 -0.0064797103
0.0010781288 0.022900378 -0.0077091306
0.0032147169 0.023159014 -0.0070800185
0.0047632456 0.02335416 -0.0067079067
0.0063347816 0.02355193 -0.0063275099
0.025079619 0.023857906 -0.0073106587
0.027144413 0.023627043 -0.0076178908
0.028511178 0.023442358 -0.0078636408
0.030677032 0.02277644 -0.0064342916
0.032687824 0.022303402 -0.0070746541
0.035813414 0.022335751 -0.011088986
0.04476409 0.022954904 -0.0077953702
0.046726275 0.022723977 -0.007201069
-0.036206812 0.025044911 -0.0064126551
-0.035084013 0.024915123 -0.0070170569
0.0028722212 0.010317929 -0.014609378
0.03379247 0.023056824 -0.0086168218
0.039732188 0.024294028 -0.0077858292
0.044725794 0.024390267 -0.0072672325
-0.036251187 0.026769906 -0.0072376132
-0.035037238 0.027105821 -0.0070097083
0.033938374 0.015409286 -0.010384314
0.029647568 0.019186825 -0.0099047134
0.039069008 0.026962807 -0.0069831382
0.041066941 0.026580075 -0.0071373642
0.042188685 0.026457965 -0.0075273057
-0.036167026 0.029028535 -0.0078802705
-0.030588504 0.027437882 -0.0099137546
-0.019744406 0.023648426 -0.018758003
-0.018561874 0.023659689 -0.018414473
-0.013524917 0.020742754 -0.025374947
-0.01124843 0.022468239 -0.020084536
0.0061563938 0.020749496 -0.022413528
0.0032600288 0.023151452 -0.017449524
-0.018292045 0.021073436 -0.022310339
-0.017445784 0.022417888 -0.019854719
-0.012836331 0.025501423 -0.013687509
-0.0054934085 0.023203602 -0.018040488
-0.0036499302 0.020864997 -0.022267375
-0.010333881 0.023886066 -0.016768439
-0.0073688529 0.022163883 -0.019966524
0.00033133008 0.02046347 -0.022493206
0.0087590758 0.021694364 -0.02030468
0.0028279361 0.025764817 -0.013071639
0.0024356653 0.020426353 -0.022181148
0.0021591142 0.015583145 -0.030642956
0.0027811718 0.026173089 -0.012220889
0.017145362 0.021222811 -0.02018217
0.020980632 0.018917525 -0.023955647
0.013818819 0.021227643 -0.020307079
0.010430703 0.024341868 -0.015590757
0.010762887 0.020490807 -0.021901002
0.027475435 0.015680512 -0.028328195
0.021593712 0.021515157 -0.019447083
0.02278134 0.019199025 -0.022734512
0.022713104 0.023739111 -0.015414461
0.018902292 0.019789118 -0.020438924
0.024527336 0.017285191 -0.022260055
0.028675664 0.01971383 -0.022535628
0.029717419 0.023383282 -0.017079132
0.029591642 0.028038766 -0.0093509508
0.03297241 0.022711771 -0.011755751
0.0349214 0.029016161 -0.0070995241
0.036979713 0.028532473 -0.007006655
0.038546436 0.028073341 -0.0075329379
-0.034667488 0.030285439 -0.0068520708
-0.033056848 0.03039103 -0.0071252342
-0.031023266 0.030392803 -0.0070292223
-0.029101303 0.030434484 -0.0069974563
-0.027116865 0.030429885 -0.0069575165
-0.025096672 0.030414078 -0.0070825857
-0.023155214 0.030414816 -0.007157228
-0.021064887 0.030415684 -0.0070684827
-0.01894426 0.030408377 -0.0072460631
-0.016915116 0.030431921 -0.0070682019
-0.01491704 0.030403925 -0.0070545869
-0.012842262 0.030467512 -0.0069567068
-0.010816207 0.030453777 -0.0070684007
-0.0089203101 0.03041565 -0.007147504
-0.0068461229 0.030444767 -0.006972251
-0.0048361644 0.030416634 -0.0070800944
-0.0029056838 0.030422213 -0.0071008843
-0.00096575718 0.030400652 -0.0071551558
0.0010241985 0.030422516 -0.0070654526
0.0030826968 0.030495958 -0.0071379254
0.0049972269 0.030500297 -0.0070944428
0.0071505131 0.030633725 -0.0071659414
0.0090799835 0.030786864 -0.0069756447
0.011011907 0.030853657 -0.0071427315
0.012948501 0.030993715 -0.0070398473
0.014980146 0.03104835 -0.0071033044
0.017591441 0.029368721 -0.0094612706
0.01863833 0.029110864 -0.0099200141
0.020940399 0.031230213 -0.0071168561
0.022933435 0.031175027 -0.0071707321
0.024876315 0.031076321 -0.0069886353
0.026874626 0.030794863 -0.0070321141
0.028889652 0.030599056 -0.0072243856
0.030867815 0.030315921 -0.0069914772
0.032591041 0.030111348 -0.0075647384
0.016921312 -0.030357778 -0.0058147907
0.018600762 -0.030301817 -0.0053323209
0.020857781 -0.030226566 -0.00468418
0.023327664 -0.030142061 -0.0044615865
0.024853006 -0.030179434 -0.0051133633
-0.036198989 -0.028633729 -0.004327327
-0.034983654 -0.028924452 -0.0049490049
-0.033106495 -0.029348895 -0.0052245059
-0.031048365 -0.029382929 -0.0050895265
-0.029030098 -0.029389109 -0.0051735453
-0.02685931 -0.029383209 -0.0053168442
-0.024861706 -0.02940408 -0.0052152807
-0.023059551 -0.029411644 -0.005286885
-0.02127558 -0.029466951 -0.0050755232
-0.01904328 -0.029505467 -0.0049780728
-0.016684812 -0.02948606 -0.004939964
-0.014705361 -0.029526534 -0.0046221819
-0.012626246 -0.02950979 -0.0049773138
-0.010701045 -0.029525138 -0.0049107466
-0.0092305318 -0.029459551 -0.0051106047
-0.0072743967 -0.029463254 -0.0051214825
-0.0051376373 -0.029495209 -0.0051079895
-0.0031808417 -0.029499095 -0.005051991
-0.0009961538 -0.029459149 -0.0050804745
0.0011434257 -0.029502559 -0.0049133389
0.0026556253 -0.029494369 -0.0050805002
0.0050686249 -0.02957958 -0.0049227392
0.0071579176 -0.02963637 -0.0052825385
0.0091552306 -0.029662378 -0.0049826046
0.011005836 -0.029762145 -0.0050432296
0.013176609 -0.029857986 -0.0049098949
0.015209408 -0.02990419 -0.0048511354
0.01718835 -0.029885318 -0.0049702572
0.019071491 -0.029836711 -0.004837512
0.020867852 -0.029808452 -0.005040504
0.023183277 -0.029666286 -0.005021947
0.025282931 -0.029455382 -0.0048355702
0.027096456 -0.029103279 -0.0046387794
0.028825015 -0.028983599 -0.0050214003
0.030854825 -0.028527198 -0.004800478
0.032809682 -0.028430007 -0.0052714003
-0.036177635 -0.027218781 -0.0049618185
-0.034986049 -0.027142992 -0.0049388069
0.031925719 -0.027851254 -0.0045810938
0.033169083 -0.027735006 -0.0048972489
0.035130959 -0.027298242 -0.0049349107
0.037070565 -0.026523152 -0.0051095583
0.038830571 -0.026196878 -0.0048282016
0.040074319 -0.026193723 -0.0057978034
-0.036182657 -0.025296673 -0.0057871044
-0.034978073 -0.024912599 -0.0050800992
0.037165444 -0.025777131 -0.0042555928
0.039147776 -0.025225157 -0.0047005699
0.040945631 -0.024811953 -0.0050697913
0.042603731 -0.024539858 -0.0051199794
-0.0362207 -0.022461966 -0.0058787465
-0.0349284 -0.023179078 -0.0049673533
-0.032886285 -0.023078948 -0.0048104343
-0.03070429 -0.023016706 -0.0053057931
-0.029030655 -0.023127109 -0.0050831437
-0.027107049 -0.023453021 -0.0050133811
-0.024771428 -0.02340398 -0.0052196868
-0.023025699 -0.023508336 -0.0047794012
-0.020680904 -0.023223313 -0.0058249235
-0.019253761 -0.023399977 -0.005138129
-0.017807364 -0.023578962 -0.0044417977
-0.014492452 -0.023315597 -0.0055816174
-0.012978196 -0.023494426 -0.0048424155
-0.0088090897 -0.02328844 -0.005812794
-0.007220149 -0.023466725 -0.0050216466
-0.0058333278 -0.023597257 -0.0040808618
-0.00095373392 -0.023436628 -0.0052168667
0.0005209446 -0.023570636 -0.0042294562
0.0057427287 -0.023432856 -0.0059882104
0.027010512 0.023480386 -0.04517287
0.052582733 -0.01109203 -0.045240566
0.041612368 -0.023615992 -0.0046551032
0.043067828 -0.023128483 -0.0048046913
0.044755057 -0.022648619 -0.0054866862
0.010331642 -0.010249585 -0.044945121
0.0035457588 -0.010680776 -0.044754878
0.043958168 -0.021939218 -0.0051401854
0.045423768 -0.021355802 -0.0050010867
0.046630003 -0.02085714 -0.0049617812
0.048061699 -0.020159572 -0.0051598549
0.037993815 0.023095878 -0.048788771
0.047249932 -0.019338502 -0.0048068548
0.048629723 -0.018814135 -0.0050002555
0.050013244 -0.018295258 -0.0057260394
0.049193203 -0.017171612 -0.0048661232
0.050579797 -0.016635008 -0.0050349752
0.049943548 -0.015954655 -0.0045509338
0.050926499 -0.015046497 -0.0048998073
0.052307054 -0.01512678 -0.0056037307
0.051567711 -0.013215539 -0.0048079472
0.052657571 -0.012936312 -0.0050558071
0.053183969 -0.011323965 -0.0050332872
0.054291528 -0.010595079 -0.005224824
0.053582158 -0.0089593111 -0.0049539143
0.054634344 -0.0088818297 -0.0052729961
0.053568162 -0.007333417 -0.0043137223
0.054877531 -0.0069745202 -0.0050358661
0.055170853 -0.0050885808 -0.0048841345
0.056164056 -0.00451985 -0.0055040717
0.055333503 -0.0030976932 -0.0045988727
0.05633992 -0.0030372739 -0.0053266883
0.055431467 -0.0011726455 -0.0048380606
0.056471996 -0.0011127405 -0.0055724829
0.050901067 -0.00031312832 -0.0054665469
0.056471951 0.001093179 -0.005572468
0.055404987 0.0030735834 -0.0046626572
0.056334436 0.0030305386 -0.0053448081
0.055190701 0.0051074559 -0.0048658801
0.056158647 0.0045134947 -0.0055218935
0.017284941 0.002376243 -0.011894453
0.054905981 0.0069357362 -0.005122365
0.052621223 0.0071596354 -0.0075426614
0.05462895 0.0088478168 -0.0051717297
0.053235341 0.011326632 -0.0049933335
0.054249179 0.010618895 -0.0051931441
0.039383642 0.015815336 -0.0094041619
0.052792706 0.012954428 -0.005052242
0.042178687 0.011330219 -0.0063249539
0.052249856 0.014838389 -0.0053055375
0.03908902 0.014659521 -0.0071362304
0.050721407 0.01683704 -0.0049941875
0.034252476 0.018350605 -0.0079525812
0.048693646 0.019066259 -0.0049526915
0.050250944 0.018285623 -0.005801437
0.032819938 0.021843612 -0.0053482652
0.034157258 0.021523297 -0.0057894588
-0.023127988 -0.022443146 -0.020328915
0.033275478 0.015610962 -0.0074676811
0.046910331 0.021020632 -0.0051099849
0.048151895 0.020133659 -0.0049475878
-0.036221594 0.022459775 -0.0058745146
-0.035010416 0.023216886 -0.005009152
-0.032881722 0.023205865 -0.0049361489
-0.031033047 0.023156531 -0.0047849244
-0.02899158 0.02318738 -0.0051604048
-0.027044494 0.023531456 -0.0050448524
-0.024814248 0.023437763 -0.0054390016
-0.023105716 0.023606887 -0.0047924346
-0.018978596 0.023470417 -0.0053361356
-0.017093509 0.023696613 -0.0043633431
-0.014191926 0.023388481 -0.0057885945
-0.012642473 0.023575161 -0.0050674379
-0.011264861 0.023718463 -0.0042093396
-0.0068433881 0.023552164 -0.0052607805
-0.0054118037 0.023692081 -0.0043413341
-0.0010870695 0.023468429 -0.0057601631
0.0005043447 0.023627017 -0.0048402846
0.027255785 0.02333352 -0.005680263
0.02863447 0.023147792 -0.0059316158
0.031469624 0.022140324 -0.0049396157
0.027475096 0.021542687 -0.016691074
0.042374942 0.023185575 -0.0066563501
0.044925001 0.02297884 -0.0050336737
0.04624293 0.022572637 -0.0056199646
-0.036163509 0.025768101 -0.0056598783
-0.03495577 0.024833139 -0.0050710244
0.0035190992 0.016255477 -0.013387819
0.013229279 0.019922014 -0.011547606
0.038455982 0.024511235 -0.0066489656
0.043090012 0.024591736 -0.005086225
-0.036160007 0.027205221 -0.0050420165
-0.034991894 0.027000528 -0.0049412395
-0.034839641 -0.017038921 -0.022827813
0.016742453 0.01631251 -0.0091410633
0.032514475 0.017482167 -0.012696569
0.034888837 0.024122754 -0.0065901885
0.038808674 0.026861042 -0.0051743737
0.040409055 0.026393818 -0.0051563056
-0.036185008 0.028913539 -0.0042254133
-0.034987301 0.028937671 -0.0049506589
-0.033264533 0.029468909 -0.0049996991
-0.031143412 0.029437985 -0.0050666961
-0.028870737 0.02947326 -0.0051127262
-0.026661146 0.029488236 -0.0050908793
-0.024922406 0.02954868 -0.0048915269
-0.023084719 0.029505624 -0.0051515787
-0.021276569 0.029526353 -0.0050826636
-0.019052366 0.029563956 -0.0049851611
-0.016916445 0.029580534 -0.0047466019
-0.014841925 0.029566474 -0.0047025364
-0.012628585 0.029571764 -0.0049848277
-0.010705091 0.029587492 -0.0049183425
-0.008972168 0.029551733 -0.0050530042
-0.0071439277 0.029511146 -0.0051777526
-0.004885871 0.026885986 -0.010029809
-0.0023970818 0.026899785 -0.009983236
-0.0002185708 0.028016495 -0.0075683496
0.0048404261 0.02520019 -0.011349684
0.01425334 0.025546635 -0.013005594
0.014017641 0.027561182 -0.0087868981
0.018062126 0.018197743 -0.021586012
0.0007722333 0.018487463 -0.021085661
0.0015598503 0.022511963 -0.016152062
0.017337725 0.019184513 -0.019299757
0.0061154887 0.027544871 -0.0096816793
0.0097319232 0.027817713 -0.009214703
0.017662404 0.015207728 -0.025239419
0.015118824 0.01806776 -0.02121838
0.01792847 0.023529898 -0.013946439
0.017572524 0.026467294 -0.011145648
0.028700029 0.012532165 -0.010041691
0.032135479 0.017076276 -0.012285102
0.031445757 0.026418056 -0.0057977508
0.032945443 0.029052563 -0.0050990633
0.03504632 0.02868288 -0.0050829463
0.036761198 0.028194711 -0.0051824967
-0.035112102 0.030559827 -0.0049577835
-0.033040531 0.030704688 -0.0050246241
-0.031118738 0.030721191 -0.0050710402
-0.029065756 0.0307339 -0.0050029168
-0.02705388 0.030748285 -0.0049877232
-0.025043853 0.030737411 -0.0051520853
-0.022939216 0.030738112 -0.0051283729
-0.020948472 0.030755533 -0.005118595
-0.019056829 0.030757159 -0.0052084904
-0.017049635 0.030786643 -0.0051377448
-0.015081285 0.03080201 -0.0050407411
-0.013008703 0.030806649 -0.0051135472
-0.010984025 0.030801106 -0.0052149342
-0.0088707013 0.030805111 -0.0051571061
-0.006791065 0.0308377 -0.0050126961
-0.0048622531 0.030819554 -0.0051581901
-0.0028906695 0.030826788 -0.0050002877
-0.00090095424 0.030801348 -0.00512526
0.0012045272 0.03083726 -0.0049927337
0.0031600164 0.030832522 -0.0051457565
0.0050950334 0.030868974 -0.0051412126
0.0070487303 0.030895201 -0.0050617578
0.0090120379 0.031017952 -0.0050826366
0.011018619 0.031074271 -0.0051229727
0.010534654 0.030456807 -0.0063708415
0.016425816 0.02624787 -0.011221185
0.018579066 0.02845389 -0.0083346395
0.019068317 0.031110903 -0.0049231597
0.020933565 0.031189865 -0.0052810069
0.02286219 0.03101732 -0.0050382707
0.024919486 0.030755997 -0.0050996761
0.02688517 0.030558582 -0.0050934167
0.029023102 0.030311923 -0.0052141668
0.030782908 0.030247629 -0.0055000288
-0.018406659 -0.030174315 -0.0021557212
0.00733459 -0.030214593 -0.0029591322
0.021451399 -0.030214265 -0.002687633
0.0227575 -0.030209005 -0.0035436153
-0.036171675 -0.029560506 -0.0039561391
-0.034758236 -0.029316695 -0.0029054189
-0.032983728 -0.029726699 -0.00300217
-0.031128857 -0.029736299 -0.0029283601
-0.029026873 -0.029726449 -0.0030671223
-0.026957873 -0.029719194 -0.0030132944
-0.024964323 -0.029733479 -0.0029487305
-0.022983044 -0.029730495 -0.0031371925
-0.020928536 -0.029765021 -0.0030115945
-0.018864442 -0.029713584 -0.0032279347
-0.016887616 -0.029718099 -0.0031979952
-0.014913425 -0.029758722 -0.0029861273
-0.012895445 -0.029743955 -0.0029301338
-0.010782741 -0.029754708 -0.0028832976
-0.0088057192 -0.029757395 -0.0029651076
-0.0070821242 -0.02971828 -0.003054515
-0.0051270835 -0.029741159 -0.0031436831
-0.0029923038 -0.029719267 -0.0031375978
-0.00089664047 -0.029714763 -0.0030695784
0.0012452751 -0.029753268 -0.0030829317
0.0030658152 -0.029725865 -0.003108195
0.004848564 -0.029789289 -0.0029232884
0.0070471889 -0.029833999 -0.0030346317
0.0089953616 -0.029861867 -0.0029895694
0.010899874 -0.029910978 -0.0028550751
0.013210875 -0.029896153 -0.002950608
0.015051246 -0.029853657 -0.0028134349
0.017114775 -0.029827492 -0.0030039079
0.019008923 -0.029752107 -0.0028236103
0.021008525 -0.029670442 -0.0032103762
0.023096299 -0.029441373 -0.0031492086
0.025149185 -0.02914438 -0.0028641559
0.027168965 -0.02900701 -0.0028009419
0.029153798 -0.028514713 -0.003126258
0.030851524 -0.028600182 -0.0030729342
0.033298343 -0.028051123 -0.0026025176
-0.0362207 -0.027168408 -0.0038363934
-0.035054516 -0.027158728 -0.0028736331
0.029622387 -0.027871698 -0.0020698309
0.031316835 -0.027733672 -0.0027582836
0.033339303 -0.027164504 -0.0029301557
0.035069257 -0.026796564 -0.0029097069
0.036530796 -0.026401294 -0.0031666779
0.038010538 -0.026377186 -0.0032360554
-0.036193714 -0.024994567 -0.0027814507
-0.035081964 -0.024927724 -0.0027620541
0.035919137 -0.025765732 -0.0026215566
0.037346572 -0.025380313 -0.002717833
0.03885334 -0.024956156 -0.0030203392
0.04062371 -0.02478043 -0.0032456643
-0.036136061 -0.023101106 -0.0028162003
-0.034655102 -0.023488391 -0.0029755763
-0.033014361 -0.023547111 -0.0028760689
-0.031075642 -0.023477549 -0.0032525486
-0.029294655 -0.023507236 -0.0029596975
-0.026996335 -0.023786101 -0.0028024155
-0.025357053 -0.023802835 -0.0027292846
-0.023543756 -0.023813387 -0.0028160817
-0.021214962 -0.023753118 -0.003164222
-0.016609669 -0.023692597 -0.0035474151
-0.015408397 -0.023805518 -0.002640754
-0.011223078 -0.023666311 -0.0036469698
-0.0095168352 -0.023823172 -0.0023868233
-0.0044749975 -0.02371924 -0.0031008273
0.0015242696 -0.023663042 -0.003570348
0.039595276 -0.023878932 -0.0027309861
0.040902518 -0.023534639 -0.0028867307
0.042873804 -0.022728691 -0.0030858666
0.044594042 -0.022347096 -0.0032188892
0.043496732 -0.02143934 -0.0027309603
0.045040071 -0.020792685 -0.0030898682
0.04646188 -0.020440705 -0.0027156174
0.045418907 -0.019577518 -0.0025955362
0.046925351 -0.019064452 -0.0031033179
0.04844062 -0.018629469 -0.003146857
0.047520235 -0.017666979 -0.0028930551
0.048848566 -0.016916811 -0.0029902046
0.050291389 -0.016006097 -0.0027198195
0.049258329 -0.015415895 -0.0027013312
0.050533988 -0.014905574 -0.0031939279
0.05202505 -0.014005706 -0.0038220286
0.049869668 -0.01358515 -0.0028653145
0.05096456 -0.013193197 -0.0028513181
0.052621335 -0.012535235 -0.0033890805
0.051527277 -0.011271195 -0.0028867971
0.052742381 -0.010883574 -0.0032285489
0.051845312 -0.0098929638 -0.0021672249
0.053100638 -0.0089638345 -0.0031642995
0.054464191 -0.0083595961 -0.0037431717
0.044700868 -0.0032278453 -0.0038525553
0.054391585 -0.0067368099 -0.0031327254
0.053578902 -0.0049723811 -0.0028911023
0.054502498 -0.0049570384 -0.0032056384
0.053788643 -0.0030932976 -0.0026893071
0.054680128 -0.0029768709 -0.0029052917
0.054672159 -0.0011418054 -0.0028785858
0.054614127 0.00095576962 -0.0029220537
0.04598248 0.0073526753 -0.0044098552
0.054651123 0.0030483853 -0.0030438318
0.037452471 0.0043458473 -0.0061326255
0.054518472 0.0049464223 -0.0031404279
0.053541169 0.0067101102 -0.0028496336
0.054368973 0.0068644444 -0.0032786005
0.051875293 0.0098900273 -0.002145797
0.053145442 0.0089216093 -0.0030666906
0.054245405 0.0085524842 -0.0037461817
0.040261228 0.0032596779 -0.011364937
0.052841321 0.010838614 -0.0032317112
0.032385986 0.021646384 -0.026360163
0.050970245 0.013195189 -0.0027386504
0.05240804 0.012672782 -0.0033361665
0.033109874 0.012303853 -0.0063238805
0.050797176 0.014891648 -0.00300219
0.052034318 0.01401405 -0.0037955046
0.02095598 0.010732228 -0.0093110148
0.04890541 0.017119462 -0.0029830479
0.050283954 0.01635994 -0.0031887095
0.020543806 0.020666748 -0.0099727949
0.042200599 0.019244753 -0.004187291
0.048560709 0.018634809 -0.0030770591
0.011999423 0.0096661169 -0.010339352
0.039813358 0.02014567 -0.0043831337
0.046650782 0.020819366 -0.003162981
-0.036108315 0.023181349 -0.0029395819
-0.034657419 0.023518031 -0.0030838768
-0.032941326 0.023680417 -0.0029178581
-0.031066706 0.023481516 -0.0032633066
-0.029402945 0.02370912 -0.0029282672
-0.026796503 0.023865161 -0.0029937492
-0.025172517 0.023891622 -0.0028553111
-0.023522496 0.023894053 -0.0028086212
-0.020894628 0.023838121 -0.003392776
-0.019500315 0.023950778 -0.0021316707
-0.015051167 0.023894466 -0.0028758447
-0.010412812 0.023796977 -0.0035818517
-0.009123385 0.023915792 -0.0026322454
-0.0045034885 0.023773838 -0.0036876798
-0.0031279624 0.023897655 -0.0026981831
0.0020139813 0.023766275 -0.0038510263
0.026474839 0.014436168 -0.0082074171
0.039948303 0.020990243 -0.0038067638
0.044745661 0.022383884 -0.0031290925
-0.036195025 0.024957433 -0.0027752072
-0.03506228 0.024857169 -0.0027523749
0.04846875 0.016755313 -0.022997558
0.041695502 0.023650985 -0.0078320978
0.039528225 0.024384448 -0.0053604352
0.040886369 0.025004618 -0.0030848333
0.042490691 0.024365947 -0.003324487
-0.036240965 0.027106881 -0.003745079
-0.03505405 0.026968285 -0.0028734072
0.020354509 0.016082913 -0.0095201125
0.025167277 0.018496206 -0.008779644
0.027664443 0.024835829 -0.0050030276
0.036935117 0.027032353 -0.0030042655
0.038835309 0.026480194 -0.0032075206
0.040239226 0.026008725 -0.0033939276
-0.022081297 0.025782466 -0.010024004
-0.017008949 0.025189679 -0.012431502
-0.011494762 0.021848496 -0.017149175
-0.012534763 0.021974679 -0.017257245
-0.010585959 0.024010686 -0.015040988
-0.00048587 0.020986112 -0.018335724
-0.0021719986 0.021244681 -0.017729875
-0.011107568 0.026131298 -0.010679017
-0.0062418976 0.020093668 -0.021065643
0.0024081671 0.018398423 -0.022727178
0.0066534448 0.022779008 -0.017001145
0.0099856416 0.021094617 -0.018452423
0.003706187 0.020531841 -0.020109383
-0.00095352298 0.02479665 -0.013512517
0.0030272191 0.019780226 -0.020405971
0.0024132947 0.018138068 -0.021175466
0.01143131 0.022843955 -0.016472699
0.015297143 0.020325014 -0.019110259
0.017287195 0.021074407 -0.018737966
0.021411102 0.017817637 -0.024420738
0.01031318 0.024761923 -0.015011781
0.0070427745 0.029917302 -0.0030141552
0.0090537444 0.029919848 -0.0031195339
0.018023562 0.030216917 -0.0093105529
0.02072724 0.030021809 -0.0092710778
0.018292177 0.014876602 -0.0081796143
0.02004317 0.017869705 -0.0070414799
0.021802967 0.010151833 -0.0096812565
0.021189168 0.01508907 -0.0081085786
0.023778472 0.014733545 -0.0079606436
0.022258034 0.0052573406 -0.019939212
0.027883656 0.02439796 -0.008299401
0.029150929 0.026429549 -0.0057193693
0.032158177 0.026794747 -0.0041564824
0.032976713 0.028758274 -0.0031342243
0.034749359 0.028296325 -0.0031751746
-0.034954607 0.03085734 -0.0031189546
-0.032925159 0.031073846 -0.0029300114
-0.031012889 0.031080961 -0.0029511105
-0.029016826 0.031083338 -0.0029862833
-0.027008291 0.031106699 -0.002859209
-0.025092367 0.031095022 -0.0029595129
-0.02307697 0.031099895 -0.0029255571
-0.021050308 0.0310896 -0.0029858754
-0.019007977 0.03109118 -0.0030713768
-0.017055426 0.03107813 -0.0030983624
-0.015103114 0.03111608 -0.0029144273
-0.013173334 0.031097699 -0.0030516852
-0.011183388 0.031097783 -0.003045988
-0.0091376957 0.031103062 -0.0030502994
-0.0071528326 0.031054048 -0.0030297998
-0.0049921419 0.031121854 -0.002909794
-0.0027993345 0.031104665 -0.0030118919
-0.000823615 0.031101823 -0.0029857592
0.0010984691 0.031118263 -0.0028990188
0.0031233155 0.031118371 -0.0030397924
0.0051304321 0.03102017 -0.0030513068
0.0092482073 0.030967487 -0.005453642
0.011236965 0.031163162 -0.0051440634
0.01101751 0.031138208 -0.0029970568
0.013108548 0.031195343 -0.002945835
0.01514404 0.031231331 -0.0028276779
0.01705227 0.03121675 -0.0030107787
0.018890547 0.031137705 -0.0029187349
0.020940777 0.031017803 -0.0033009825
0.022935079 0.030725598 -0.0030426327
0.024816474 0.030613806 -0.0032087734
0.026882434 0.03038964 -0.0032419611
0.028683882 0.030265704 -0.0035257265
-0.036158919 -0.030049533 -0.00034093857
-0.030019253 -0.03033492 -0.00087326765
-0.029316097 -0.030354649 -0.00028514862
-0.0181382 -0.030371249 -0.0003695488
-0.017087668 -0.030238211 -0.00090825558
-0.0049923509 -0.030306928 -0.00075498223
0.0024725497 -0.030268401 -0.00062245131
0.0075581074 -0.030369788 -0.0013795495
0.0090402961 -0.030331425 -0.00081971288
0.010536224 -0.030291229 -0.00026845932
0.017491549 -0.030219615 -0.00019049644
0.01881662 -0.030219078 -0.0010145903
0.020141989 -0.030218557 -0.0018383861
-0.036179684 -0.028774112 -0.00090165937
-0.034827448 -0.029257942 -0.0008014281
-0.032900039 -0.029858556 -0.00067964674
-0.030982004 -0.029857282 -0.0006297378
-0.02902857 -0.029871985 -0.00087234582
-0.027035851 -0.029866397 -0.00078591146
-0.025112152 -0.029869219 -0.00073844235
-0.023120409 -0.029870063 -0.0007320575
-0.020932715 -0.029866925 -0.00069372979
-0.018816341 -0.029875306 -0.00084705109
-0.017045686 -0.029876361 -0.00084754237
-0.015037148 -0.029878417 -0.00088582671
-0.013050285 -0.029878974 -0.00086026732
-0.010982386 -0.029880026 -0.00067847117
-0.0089115025 -0.029877394 -0.0006194858
-0.006891951 -0.0298834 -0.0006268287
-0.0051928391 -0.02989012 -0.00081959408
-0.0030872757 -0.029903829 -0.0010579233
-0.0011582316 -0.029906908 -0.0010351459
0.00096895325 -0.029897982 -0.00099729456
0.003035435 -0.029892918 -0.00096471485
0.0050250287 -0.029886851 -0.00091912894
0.0070913648 -0.029879518 -0.00073485717
0.0091931773 -0.029868711 -0.00067727902
0.011034802 -0.029844161 -0.00081964704
0.013045477 -0.029819185 -0.00072211662
0.014993607 -0.029771466 -0.000731254
0.017005607 -0.029709898 -0.00091937976
0.018987428 -0.029495377 -0.00086255418
0.020834813 -0.02943249 -0.0012801734
0.022878641 -0.029257983 -0.0010578458
0.02486882 -0.028979905 -0.0010184621
0.026950181 -0.028451787 -0.00097923854
0.028748674 -0.028487092 -0.0011474062
0.031066224 -0.02814772 -0.00047147274
0.032201529 -0.028106704 -0.0014922023
-0.036188327 -0.026820857 -0.00095881522
-0.03498701 -0.02710223 -0.00084814447
0.029196102 -0.027758839 -0.00060244015
0.031032734 -0.027310494 -0.0007480958
0.032981537 -0.026766416 -0.00096207473
0.03488424 -0.026538998 -0.0010014925
0.036598414 -0.026476294 -0.0016685724
-0.035033979 -0.024937576 -0.00078672415
0.035100318 -0.025613677 -0.00071986549
0.037143491 -0.025057169 -0.0010417245
0.038999856 -0.02470913 -0.001158523
0.040429443 -0.024063021 -0.00062125921
-0.034682125 -0.023620799 -0.00067645498
-0.032973755 -0.023693534 -0.00095499976
-0.031043589 -0.02351586 -0.00069228042
-0.028926946 -0.023741132 -0.00094528636
-0.026940569 -0.02382043 -0.0009626504
-0.024751108 -0.023819989 -0.0011712381
-0.02331005 -0.023832163 -0.00091916369
-0.019456487 -0.02383589 -0.0010498961
-0.014455885 -0.023855228 -0.0015562028
-0.013688803 -0.023858799 -0.00034785271
-0.0084953308 -0.023878783 -0.0012660027
0.039137773 -0.02343414 -0.00081044598
0.041060168 -0.02288029 -0.001037973
0.042623118 -0.022530491 -0.0012258887
0.041037332 -0.02189973 -0.00061386824
0.042962581 -0.021085933 -0.00093466992
0.044713214 -0.020675102 -0.0012992722
0.043254834 -0.019796461 -0.0002515316
0.045100581 -0.019248836 -0.00094462244
0.046845585 -0.018803967 -0.0011286241
0.045729112 -0.017664671 -0.0009612143
0.046988335 -0.017178394 -0.00092883396
0.048750531 -0.016770026 -0.0012633204
0.047732055 -0.015664788 -0.00058406591
0.048852876 -0.014972496 -0.0010085419
0.050468415 -0.014406502 -0.0012278259
0.049406152 -0.013139827 -0.00082521432
0.050830834 -0.012834218 -0.0011801113
0.049746878 -0.011571257 -0.00027300417
0.051086575 -0.011095409 -0.00076681166
0.052220087 -0.011065617 -0.0014820894
0.051417161 -0.0090213045 -0.00087332039
0.052598979 -0.0089197364 -0.0014059603
0.051453721 -0.0069816215 -0.00030263266
0.052742612 -0.0069709509 -0.0010440679
0.051525217 -0.0051601529 -0.00010925531
0.05320235 -0.0048649739 -0.00091905124
0.054223627 -0.0047538728 -0.0018444955
0.051684391 -0.0039197206 -6.8545341e-06
0.053313304 -0.0029724166 -0.00085740187
0.054277163 -0.0029026659 -0.0013214946
0.046096053 -0.0035556124 -0.0019475757
0.054397788 -0.00085483742 -0.0013285379
0.052860353 0.0025041359 -0.001979393
0.054341886 0.00081469549 -0.0014103255
0.046525538 -0.024578139 -0.013894737
0.053298831 0.0030530565 -0.00085209421
0.054238871 0.0029085842 -0.0013894191
0.0049808398 0.028250992 -0.014584109
0.053127445 0.0048648594 -0.00081694941
0.054233372 0.0047331229 -0.0018153489
0.013940847 0.0041026738 -0.010303533
0.052799836 0.0070332042 -0.0010753296
0.041609965 0.0074921395 -0.0033872474
0.052607648 0.0089333104 -0.0012863753
0.028091103 0.015216371 -0.0086114705
0.051258173 0.011132467 -0.00091834727
0.052349474 0.010855365 -0.0015559433
0.040035143 0.0041337209 -0.0092410091
0.050823018 0.012977644 -0.0010689218
0.047806621 0.015652606 -0.00053453445
0.043789845 0.015710106 -0.0026966631
0.050364405 0.014421199 -0.0013236906
-0.034906119 -0.013198186 -0.019009106
0.036893431 0.015111005 -0.0032716668
0.048810456 0.016995326 -0.001309944
-0.01098232 0.024260461 -0.020169079
0.031747326 0.014358948 -0.0043483675
0.047035292 0.018722808 -0.0010614524
-0.035255708 0.0071343035 -0.021725297
0.02743835 0.019951452 -0.0053101867
0.04499872 0.02091141 -0.0010733001
-0.034839638 0.023645863 -0.00080987345
-0.032984395 0.023770049 -0.00089818181
-0.031007215 0.023547381 -0.00098892068
-0.029073721 0.023809075 -0.0013144516
-0.027347399 0.023909379 -0.00091803301
-0.024755239 0.023917992 -0.0014232649
-0.023333913 0.023923075 -0.0010372822
-0.018760473 0.023954239 -0.00096520782
-0.013448507 0.02397972 -0.0010657758
0.037916213 0.023959339 -0.00050999783
0.021168811 0.006276099 -0.0092830192
0.036418438 0.020714255 -0.0021782904
0.042887673 0.022723837 -0.0011886574
0.044100087 0.022620499 -0.0019759843
-0.035018336 0.02489261 -0.00084042148
-0.0079491138 0.02400622 -0.0015973747
0.032749105 0.023276139 -0.01175811
0.025361149 0.018170699 -0.0068751173
0.038967192 0.025187559 -0.0011667198
0.040908128 0.024396811 -0.001180155
-0.036176663 0.02704164 -0.0012798707
-0.034982789 0.026985321 -0.00084550836
0.018738374 0.018230742 -0.0082490221
0.034851722 0.018081883 -0.012980404
0.030842017 0.024848478 -0.0047947522
0.035057683 0.026993051 -0.00091108761
0.036985278 0.026566945 -0.0011336328
0.038148776 0.026384711 -0.0016349782
-0.036174923 0.028745484 -0.00092238188
-0.034866132 0.029277049 -0.00092064985
-0.014645788 0.015730979 -0.019644678
-0.017444786 0.021442007 -0.011787649
-0.029075766 0.029940045 -0.0010635045
-0.026969379 0.029934213 -0.00092356047
-0.025290852 0.029949715 -0.00099634193
-0.023144346 0.029946834 -0.000918312
-0.020872019 0.029937916 -0.00086548738
-0.01869081 0.029947273 -0.0010759663
-0.016830362 0.029945172 -0.00098740496
-0.01494537 0.029946912 -0.001341137
-0.012962273 0.029953839 -0.0011272167
-0.010724097 0.029956317 -0.00092711713
-0.0087475004 0.029949283 -0.00081860687
-0.0067252181 0.029955491 -0.00079420133
-0.0049995235 0.029965442 -0.00098464452
-0.0033524111 0.029958785 -0.001217721
-0.0011848509 0.029943347 -0.00094648264
0.0011543274 0.029939402 -0.0011420634
0.0029353302 0.029943904 -0.0011580791
0.0048338822 0.029942583 -0.0011161821
0.0071182968 0.029961741 -0.0010246899
0.010798895 0.019377926 -0.014092982
0.011438538 0.024042249 -0.0082783997
0.013439754 0.018143889 -0.015577194
0.011509515 0.0071207648 -0.020385617
0.013836889 0.012928263 -0.013256726
0.015826434 0.012745132 -0.013140951
0.013780527 0.015697263 -0.0075638788
0.017780615 0.018569903 -0.0059458516
0.018815843 0.021739529 -0.0051311003
0.022261081 0.022876643 -0.0067556789
0.027333084 0.027413752 -0.0021444059
0.031072911 0.028817683 -0.0010237967
0.032830574 0.028420893 -0.0012886587
-0.036141992 0.030038536 -0.0004145503
-0.034926087 0.031144252 -0.00098989415
-0.032959767 0.031221323 -0.00087290432
-0.031040953 0.031122934 -0.00079116959
-0.020948671 0.025716549 -0.0077281939
-0.018163987 0.024670852 -0.0090004522
-0.02088598 0.027951431 -0.0049154703
-0.016109547 0.025352115 -0.0081183463
-0.015104062 0.024617005 -0.0090037752
-0.016752297 0.028221572 -0.0044518705
-0.01291298 0.025404258 -0.0082776733
-0.011463284 0.02501151 -0.0085531296
-0.01174901 0.02826729 -0.0045404867
-0.0087241046 0.025437666 -0.0081123328
-0.0021854753 0.024866657 -0.0086163804
-0.0039710966 0.027998554 -0.004701212
-0.00032489398 0.026075248 -0.0070350477
0.001540306 0.025673706 -0.0075294073
0.0014061115 0.027834572 -0.0048682839
0.0043298639 0.025649739 -0.00737917
0.0060420739 0.025184726 -0.0082300743
0.0061966376 0.028364856 -0.0042151059
0.0088101057 0.025447858 -0.0078112772
0.0097559011 0.027567113 -0.0051844423
0.010979935 0.031203065 -0.00082888338
0.012972951 0.031177716 -0.0007703788
0.01495983 0.03114485 -0.0007080923
0.016980015 0.031065274 -0.00077855051
0.019078236 0.030852225 -0.00086107128
0.020976301 0.030719172 -0.0013151608
0.023044914 0.030499794 -0.0010177615
0.025099453 0.030311238 -0.0011353473
0.026844909 0.030186534 -0.001470498
-0.035388872 -0.030246943 0.0015911162
-0.028540462 -0.030337051 5.7280064e-05
-0.026983332 -0.030301651 0.00074422359
-0.025028333 -0.030257247 0.0016070306
-0.019315541 -0.03028632 0.0014368296
-0.016795328 -0.030337155 0.00047465166
-0.015222833 -0.030306138 0.00089666247
-0.013546184 -0.030268662 0.001624465
-0.0030296645 -0.030338153 0.00073051453
-0.00068195909 -0.030311454 0.0017630458
0.0010294318 -0.030347139 0.0010510087
0.00205338 -0.030363217 0.00057768822
0.011537492 -0.030264422 0.0001013279
0.013337463 -0.030218333 0.001077652
0.015122285 -0.030183345 0.0010352533
0.01641424 -0.030117624 0.00052577257
-0.034806252 -0.029376507 0.0010722782
-0.032984078 -0.02976848 0.0011408323
-0.03115277 -0.029791882 0.00084844173
-0.029092096 -0.029783994 0.00096342899
-0.026974842 -0.029792149 0.00089187792
-0.025174554 -0.02978141 0.0009967949
-0.023289792 -0.029792812 0.00096078089
-0.020863187 -0.029789902 0.0010333564
-0.018682376 -0.029789438 0.0011746779
-0.016750477 -0.029796805 0.0010738466
-0.014919236 -0.029801831 0.0010308381
-0.012862865 -0.029827446 0.00081170164
-0.01066052 -0.029824268 0.0008518243
-0.0087447269 -0.029828232 0.00093325414
-0.0071741147 -0.029822569 0.0011739924
-0.005131939 -0.029836489 0.0010248373
-0.003277604 -0.029849218 0.00078070228
-0.0011010166 -0.029863723 0.00062455691
0.0011280113 -0.029865179 0.00080142467
0.0031315375 -0.029862851 0.00066454837
0.0049435743 -0.02984987 0.00087447133
0.0071879281 -0.029830843 0.00082899071
0.0092808306 -0.02981521 0.0010044072
0.011072601 -0.029744398 0.001185819
0.013105954 -0.029683363 0.0012355479
0.01503073 -0.029519241 0.001174401
0.01706266 -0.029483959 0.00091757142
0.019096827 -0.02927383 0.00092407363
0.021202233 -0.029182175 0.00081368763
0.022820571 -0.028849749 0.00075836352
0.024943607 -0.028486064 0.0012838802
0.026910746 -0.028470252 0.00070608035
0.029161325 -0.028208476 0.0011784037
-0.036157221 -0.026519865 0.0015230775
-0.035065312 -0.027240807 0.0012232033
0.025116771 -0.027946949 0.0015378986
0.026874609 -0.027767148 0.0012681456
0.029030142 -0.027274959 0.0013240464
0.031005954 -0.026756408 0.0010530923
