# .PCD v0.7 - Point Cloud Data file format
VERSION 0.7
FIELDS x y z
SIZE 4 4 4
TYPE F F F
COUNT 1 1 1
WIDTH 201
HEIGHT 1
VIEWPOINT 0 0 0 1 0 0 0
POINTS 201
DATA ascii
-0.0040452918 0.087539881 0.53822219
0.004490016 0.088094324 0.53567749
0.014090697 0.089288794 0.5329231
0.02478656 0.089244977 0.53344446
0.035228573 0.089333341 0.53600001
0.040553335 0.089320004 0.53900003
-0.0020511376 0.094464272 0.53808331
0.0051011615 0.094936639 0.53591967
0.015223621 0.095099509 0.53427488
0.025045078 0.094880775 0.53408259
0.034736559 0.095000952 0.53628963
0.041195005 0.095544174 0.53900003
-0.0015809144 0.10402741 0.53891993
0.0052307546 0.1052245 0.53731209
0.015309684 0.10513347 0.5358696
0.025005179 0.10512228 0.53581083
0.034015283 0.10487548 0.53789842
0.040553335 0.10061334 0.53900003
-0.00051333336 0.11088 0.53900003
0.0058959113 0.11321769 0.53799999
0.015314194 0.11488225 0.53728533
0.024743957 0.11514321 0.53773385
0.03366122 0.11212249 0.53803122
0.01694 0.12089002 0.53900003
0.020020001 0.12063334 0.53900003
-0.014837585 0.086958185 0.54617774
-0.0089695249 0.088756576 0.54120004
0.044405617 0.088750586 0.54144448
0.053543974 0.089412868 0.54583335
-0.014525049 0.094935276 0.54591882
-0.0071718791 0.095265068 0.54098326
0.045684196 0.094705902 0.54143846
0.053340413 0.094916709 0.54578698
-0.014372719 0.10481256 0.54676062
-0.0063543371 0.10544305 0.54183334
0.038875788 0.10736736 0.54014283
0.044965919 0.10535613 0.54290468
0.052542888 0.10445867 0.54757512
-0.012988136 0.11369018 0.54794288
-0.005260569 0.11525494 0.54350555
0.004034075 0.11753896 0.54116678
0.011828572 0.11982858 0.54000002
0.027668571 0.11900572 0.54000002
0.035985734 0.11660168 0.54185456
0.045211721 0.11513151 0.54508978
0.051483598 0.11392994 0.54814291
-0.011462665 0.12406686 0.54873335
-0.0052766562 0.12518963 0.54635894
0.0050903265 0.1249792 0.54184371
0.014706081 0.1255262 0.54056191
0.024805648 0.12535831 0.54146075
0.034899637 0.12497735 0.5432744
0.04434241 0.12476121 0.54734737
-0.0047345911 0.13471207 0.54722244
0.0051692324 0.13507991 0.54341286
0.014967322 0.13522038 0.54191101
0.024706732 0.13495757 0.54225785
0.034736902 0.13494641 0.54448742
0.043377895 0.1350396 0.54831254
-0.0036567997 0.14433676 0.54823452
0.0051390054 0.14506507 0.54575276
0.015050279 0.14493239 0.54301339
0.024970967 0.14475729 0.54422957
0.034926631 0.14495958 0.54707319
0.041995525 0.14348105 0.54889989
-0.0022020782 0.15386671 0.54878783
0.0052634231 0.15494005 0.54756075
0.015004421 0.15481478 0.5451135
0.024830572 0.1547299 0.54605269
0.034792833 0.15455946 0.54819494
0.040259998 0.15319715 0.54900002
0.0059721405 0.16496354 0.5485301
0.01511117 0.16522865 0.54727173
0.024963798 0.16479744 0.54750007
0.032645997 0.16362935 0.54870582
0.0085399998 0.17326489 0.54899991
0.015613938 0.17452233 0.54857147
0.023068316 0.17434028 0.54807705
0.018001227 0.18128204 0.54900002
0.021437146 0.18038572 0.54900002
-0.022950951 0.086738005 0.55603337
-0.019445555 0.087240487 0.55183339
0.058039054 0.088851519 0.55263638
-0.022923287 0.094630942 0.55509812
-0.019254545 0.095790833 0.55181819
0.058291748 0.095800571 0.55206668
0.062521033 0.097086109 0.55708331
-0.022904292 0.10510083 0.55604088
-0.019201269 0.10572857 0.55233335
0.057413887 0.10562146 0.55229276
0.062107511 0.10431454 0.55735999
-0.022146666 0.11418035 0.55742854
-0.016934207 0.11624552 0.55317396
0.056307793 0.11503887 0.55232763
0.062069528 0.11033715 0.55700004
-0.020746943 0.12410314 0.55857146
-0.016121356 0.12528791 0.55368656
0.048748646 0.12705253 0.5503847
0.054581907 0.12480047 0.55481249
-0.020762859 0.13203049 0.55900002
-0.015312223 0.13485292 0.5545001
-0.0096092066 0.13714699 0.55033332
0.048230056 0.13511322 0.55177784
0.053629339 0.13496675 0.55627686
-0.014384541 0.14471868 0.55546284
-0.0086031212 0.14630076 0.55141383
0.046075657 0.14571992 0.55138779
0.052634642 0.14411877 0.55718184
-0.013743786 0.15537255 0.55561978
-0.0064498293 0.15547006 0.55119997
0.038461905 0.1585625 0.55019999
0.045215067 0.15509754 0.55351359
0.051407788 0.15505953 0.55741668
-0.01350211 0.16475965 0.55669701
-0.0047363071 0.16488908 0.55196315
0.0010476871 0.16591993 0.55007154
0.029333334 0.16919048 0.55000001
0.036903352 0.16570848 0.55131912
0.045005858 0.16520689 0.55539775
0.0510935 0.16179572 0.55883336
-0.011866721 0.17478189 0.55735141
-0.0047491165 0.17499673 0.55345261
0.0041963393 0.17578702 0.55096853
0.01356778 0.1773112 0.55027783
0.02812627 0.17549109 0.55086112
0.035256386 0.174972 0.55244476
0.044660106 0.17506701 0.55645198
-0.011375423 0.18391684 0.55849993
-0.0047521908 0.1852202 0.55530012
0.0052723205 0.18505187 0.55215085
0.014949834 0.18559191 0.55110788
0.024748165 0.18504851 0.5518831
0.034829739 0.18511215 0.55452842
0.043501683 0.18425643 0.55789125
-0.010470159 0.19130224 0.55900002
-0.0046855411 0.19512217 0.55714267
0.0047230264 0.19512227 0.55419016
0.014967483 0.19531691 0.55349427
0.024791999 0.19501865 0.553271
0.034944564 0.19491449 0.55539566
0.041932255 0.19364545 0.55866671
-0.031533469 0.086985037 0.56528574
-0.027750874 0.086861514 0.56300002
-0.031156322 0.093748063 0.56466669
-0.028045384 0.094972759 0.56221884
0.063822225 0.097244449 0.56
-0.030671431 0.10062382 0.565
-0.027899852 0.10246146 0.56389475
0.065552503 0.10775395 0.56223536
-0.026092542 0.11838461 0.56566668
0.064880244 0.11842739 0.56650001
-0.024432031 0.1247372 0.56340748
0.059092384 0.12769505 0.56099999
0.062908664 0.12464694 0.56475002
-0.022694476 0.13276495 0.56106669
0.058731277 0.13436693 0.56061113
0.062789477 0.13378786 0.56482857
-0.022959836 0.14640783 0.56517643
-0.019130757 0.14609751 0.5607059
0.057003643 0.14635432 0.56189656
0.060912386 0.14931621 0.56600004
-0.023370923 0.15486 0.56606382
-0.019001633 0.15431854 0.5608573
0.056011535 0.15441002 0.56197768
-0.022595346 0.16490772 0.56591439
-0.018749958 0.16577493 0.56100011
0.05447657 0.16600282 0.56274074
0.061271325 0.16854267 0.56822228
-0.021920783 0.17437169 0.56636357
-0.017318586 0.17529428 0.56251997
0.049600001 0.17617778 0.56
0.054282513 0.17491151 0.56423336
0.062678099 0.17144173 0.56816667
-0.02162016 0.18159951 0.5675
-0.016226739 0.18495558 0.56261814
0.04798713 0.18603702 0.56048286
0.053274002 0.18447256 0.56470728
-0.021302303 0.19584771 0.56625003
-0.015349491 0.19521669 0.56327385
-0.0090666674 0.19893335 0.56
0.045615375 0.19427094 0.56094611
0.052951083 0.19324315 0.56707412
0.067308888 0.12782182 0.57355559
0.070520006 0.12956001 0.574
0.067730218 0.13213006 0.57309085
-0.027171811 0.14726858 0.57060009
-0.031541109 0.15696387 0.57761121
-0.027806707 0.15570043 0.57245833
-0.031183541 0.16217974 0.57728577
-0.027257508 0.16510622 0.57205409
0.063514292 0.16882858 0.57000005
-0.030158333 0.17451026 0.57575005
-0.026474822 0.1751211 0.57242215
0.059171431 0.17208573 0.57000005
0.060800005 0.17208573 0.57000005
-0.025650587 0.18364297 0.57241309
0.055957142 0.18866818 0.57042867
0.057673227 0.19498193 0.57158816
0.061038248 0.19610152 0.57184619
0.057515718 0.20094882 0.57375002
0.060732864 0.20134906 0.57450002
