# .PCD v0.7 - Point Cloud Data file format
VERSION 0.7
FIELDS x y z
SIZE 4 4 4
TYPE F F F
COUNT 1 1 1
WIDTH 1244
HEIGHT 1
VIEWPOINT 0 0 0 1 0 0 0
POINTS 1244
DATA ascii
0.023103284 0.0049402029 -0.030571209
0.024969604 0.0050283652 -0.030793795
0.026929185 0.0049878531 -0.030724637
0.028936315 0.0051143295 -0.03068837
0.030876845 0.0050221975 -0.030685738
0.033002254 0.0050401143 -0.030732028
0.034969304 0.0050428817 -0.030685237
0.03698796 0.004980165 -0.030648833
0.038911529 0.0051903697 -0.030593535
0.041099112 0.0050583305 -0.03064198
0.043013323 0.0049926755 -0.030652421
0.044305012 0.0050204573 -0.030452436
-0.044369251 0.0065716505 -0.030252196
-0.042939078 0.007094638 -0.030505465
-0.041124545 0.0069384901 -0.030497989
-0.039200783 0.0068073147 -0.030413486
-0.037010714 0.0069542034 -0.03040662
-0.034866221 0.0069475747 -0.030486364
-0.032953419 0.0068474594 -0.030525077
-0.031007683 0.0068767676 -0.030478833
-0.02893105 0.0069470536 -0.030487835
-0.026928384 0.0068778545 -0.030519223
-0.02500285 0.0068254964 -0.030403493
-0.023087647 0.0068969848 -0.030302975
-0.02117485 0.0069778669 -0.030554581
-0.019015668 0.0068688807 -0.030487623
-0.017065683 0.0069775428 -0.030525628
-0.015038598 0.0069434005 -0.03050003
-0.012998182 0.0068609752 -0.030507939
-0.011028579 0.0070817173 -0.030473657
-0.0090910345 0.0069698752 -0.030489257
-0.0070399009 0.0068555423 -0.030516682
-0.0048788795 0.0069347862 -0.030493261
-0.0030328929 0.0068965652 -0.030505333
-0.0011078732 0.0069369329 -0.030472273
0.0010026693 0.0068289298 -0.03050421
0.0030859751 0.0069726799 -0.030486776
0.0048589031 0.0068768095 -0.030454986
0.0069583617 0.0069013559 -0.030517949
0.0089784516 0.0069017047 -0.030488634
0.010953594 0.006950357 -0.030462483
0.013075798 0.0068143224 -0.030512813
0.015190769 0.0070060939 -0.030431142
0.017133821 0.0068615172 -0.030488435
0.019156072 0.0067952308 -0.030489758
0.020987315 0.0068932185 -0.030518504
0.022966875 0.0068807621 -0.030372242
0.024878828 0.0069250329 -0.030524697
0.02696701 0.0068703857 -0.030432561
0.029122548 0.0068644634 -0.030410269
0.030971613 0.0068904632 -0.030415155
0.033022828 0.0068348162 -0.030452382
0.0351457 0.0069670081 -0.030401779
0.036960293 0.0068935533 -0.030377774
0.039053064 0.0067149336 -0.030434756
0.041062117 0.0069443667 -0.030431937
0.042942397 0.0066630808 -0.030421641
0.044182897 0.0068615479 -0.030193349
-0.042862333 0.0085424008 -0.030145366
-0.041127473 0.0083683822 -0.030198447
-0.039370585 0.0082954466 -0.030178985
-0.036972843 0.0086867912 -0.030194279
-0.035081737 0.0087275943 -0.030217314
-0.033065762 0.0086021647 -0.030227605
-0.031017045 0.0085986881 -0.030210843
-0.029282724 0.0087131727 -0.030198334
-0.026976796 0.0086050993 -0.030230314
-0.025015686 0.0086354204 -0.030203577
-0.022864133 0.0087649003 -0.030149981
-0.02106072 0.00835458 -0.03019505
-0.019049788 0.0084537482 -0.03016475
-0.017083211 0.0083491337 -0.030210011
-0.014929171 0.0085243806 -0.030172288
-0.012943081 0.008374542 -0.030189112
-0.010971542 0.0084203025 -0.030233458
-0.0089651197 0.0085046161 -0.030169941
-0.0068988814 0.008343271 -0.030230012
-0.0047758706 0.0083958991 -0.030175656
-0.0031836778 0.0085254814 -0.030216396
-0.0011029071 0.0084067453 -0.030176949
0.0011105752 0.0084703118 -0.030206915
0.0030360445 0.0083092228 -0.030211717
0.0048661265 0.0084262304 -0.03020056
0.0072059706 0.0084283724 -0.030204888
0.0092523284 0.0083018532 -0.030186601
0.01098867 0.0084258402 -0.030198142
0.013114234 0.0083477031 -0.030244019
0.014850241 0.0085010529 -0.030184049
0.016866744 0.0082783727 -0.030204182
0.018862396 0.0084647564 -0.030227544
0.020883854 0.0083361734 -0.030193329
0.022538368 0.0084401909 -0.030188978
0.025311232 0.0085774446 -0.030251736
0.026987433 0.0085764574 -0.030280674
0.029158963 0.0088388287 -0.030185239
0.031087255 0.0086250836 -0.030240173
0.032824881 0.0085077807 -0.030266752
0.035049904 0.008862243 -0.030208085
0.037068732 0.0087365862 -0.030217167
0.039347667 0.0086665787 -0.030134663
0.040838998 0.0083412519 -0.030238003
0.04280699 0.0082758302 -0.030221963
-0.040312022 -0.01408647 -0.028014541
-0.036456794 -0.014245555 -0.028035164
-0.035307214 -0.014084488 -0.028109491
-0.032583728 -0.014117122 -0.0280177
-0.031059414 -0.01415292 -0.028056523
-0.029981315 -0.014056846 -0.028128207
-0.026473075 -0.014311314 -0.028017044
-0.025621742 -0.014198437 -0.0280689
-0.019196719 -0.014089659 -0.028036892
-0.015274107 -0.014033079 -0.028050691
-0.012856916 -0.014060721 -0.028059483
-0.0070722103 -0.014095729 -0.028039685
-0.0058912486 -0.014002144 -0.028074771
-0.00051495433 -0.014187083 -0.028006315
0.0011904091 -0.014067873 -0.028058499
0.0076913238 -0.014093891 -0.028066099
0.009843111 -0.014151037 -0.028007954
0.012180135 -0.014043808 -0.028067261
0.015289426 -0.014129043 -0.028056562
0.020702422 -0.014121294 -0.028032601
0.024686545 -0.014049053 -0.028194666
0.029598445 -0.014240324 -0.028012484
0.03060776 -0.014380023 -0.028051615
0.032588255 -0.014145359 -0.028126528
0.041634992 -0.014211498 -0.02802217
0.043094397 -0.014099479 -0.028104424
-0.04441312 -0.012941107 -0.028096162
-0.042844929 -0.012921147 -0.028502267
-0.041070912 -0.012776198 -0.028547412
-0.039164595 -0.012713616 -0.028417476
-0.036788382 -0.012844102 -0.028521303
-0.035050116 -0.012978372 -0.028422263
-0.033061471 -0.012929955 -0.028414957
-0.030927626 -0.012850381 -0.02849324
-0.028929062 -0.01297893 -0.028431058
-0.027017429 -0.012778275 -0.028501811
-0.025212867 -0.012907286 -0.028406765
-0.022914056 -0.012748512 -0.028430641
-0.02095985 -0.012777749 -0.028553946
-0.019011488 -0.012795343 -0.028445462
-0.01711542 -0.012850913 -0.028477352
-0.01507996 -0.012638453 -0.02855015
-0.013072857 -0.012826682 -0.028494164
-0.010974099 -0.012883485 -0.028503835
-0.0091509568 -0.012722793 -0.028549828
-0.0070262696 -0.012749338 -0.028503833
-0.0048298375 -0.012786579 -0.028531054
-0.0031186144 -0.012846823 -0.02849165
-0.0010656636 -0.012734896 -0.028497726
0.0010386769 -0.012786058 -0.028511332
0.0031608234 -0.012752312 -0.028567731
0.0049498305 -0.012792624 -0.028486481
0.0068622064 -0.012748345 -0.028511707
0.0089658964 -0.012811423 -0.028523013
0.011044012 -0.012699571 -0.0285438
0.012931773 -0.012781658 -0.028441558
0.015013726 -0.012695706 -0.028535614
0.017010599 -0.012781929 -0.02845639
0.018896807 -0.012759718 -0.028456135
0.020957865 -0.012775418 -0.028527323
0.022892961 -0.012578503 -0.028439272
0.025144424 -0.012750732 -0.028457817
0.027043769 -0.012886437 -0.028423036
0.028994501 -0.012913214 -0.028416477
0.031014906 -0.01284531 -0.028426705
0.033005651 -0.012806023 -0.028463826
0.034941729 -0.012910174 -0.028399881
0.036965497 -0.012825674 -0.028413301
0.038974199 -0.01267151 -0.028430296
0.041157681 -0.012637958 -0.028544968
0.042859472 -0.012603778 -0.028472202
0.04423584 -0.012948434 -0.02817904
-0.044570278 -0.010809134 -0.028510891
-0.043009691 -0.011004433 -0.029125273
-0.041004289 -0.010876329 -0.029012164
-0.038858458 -0.010905711 -0.028889464
-0.037019163 -0.010882646 -0.029004591
-0.03489254 -0.010950604 -0.029037641
-0.032967657 -0.010904822 -0.029104659
-0.03111341 -0.010880847 -0.029036688
-0.029085353 -0.010898219 -0.029059868
-0.027011476 -0.010872608 -0.029045034
-0.025090802 -0.010897992 -0.028988171
-0.023212481 -0.010858169 -0.028805532
-0.020951077 -0.010838681 -0.029078614
-0.018908314 -0.010929703 -0.029070653
-0.016990624 -0.010834175 -0.02895204
-0.015079717 -0.010811646 -0.029068299
-0.012919995 -0.010893008 -0.02905475
-0.010973232 -0.01091232 -0.028969189
-0.0090628751 -0.010861988 -0.029014472
-0.0070330212 -0.010831861 -0.029078839
-0.0049490514 -0.010943386 -0.028928028
-0.0030239834 -0.010797611 -0.029054495
-0.0011325952 -0.010941195 -0.028980453
0.00095953239 -0.010851566 -0.029021021
0.0029899152 -0.010824347 -0.029009908
0.0048769349 -0.010894323 -0.02907156
0.0070790751 -0.010857914 -0.028906677
0.0091020707 -0.010889964 -0.029032199
0.011034911 -0.010831627 -0.028978162
0.013033395 -0.010859696 -0.028953334
0.0149774 -0.010869107 -0.029061791
0.017132839 -0.010818347 -0.028916303
0.019151786 -0.010867407 -0.029079903
0.021113049 -0.010885144 -0.028933838
0.023129765 -0.010821014 -0.028927892
0.024922373 -0.010936042 -0.028707501
0.026909485 -0.010964948 -0.029019011
0.028932687 -0.010924346 -0.028963583
0.030966632 -0.01089935 -0.029033722
0.03292419 -0.010860253 -0.029011304
0.035066843 -0.010908846 -0.028942406
0.036996782 -0.011044522 -0.028940426
0.038911011 -0.010844849 -0.028766783
0.04103167 -0.010775238 -0.028991142
0.043047491 -0.010892058 -0.029008795
0.044445895 -0.010896195 -0.028641032
-0.044706967 -0.0088984985 -0.028599693
-0.042911455 -0.0090761352 -0.029173728
-0.040984824 -0.00904602 -0.029203165
-0.038947754 -0.0089477133 -0.029193155
-0.037150651 -0.0090518929 -0.029125985
-0.034983512 -0.0091595966 -0.029292088
-0.033072706 -0.0090886829 -0.029206311
-0.030946907 -0.0090620322 -0.029216938
-0.029034035 -0.0091177532 -0.029137982
-0.026962413 -0.0091140112 -0.029270347
-0.025095774 -0.0089486716 -0.029098349
-0.023138078 -0.0089848731 -0.02913983
-0.021033507 -0.0091190841 -0.029140139
-0.018984344 -0.0089783231 -0.029209403
-0.016962612 -0.0091128154 -0.029167622
-0.014970142 -0.0090720756 -0.02920256
-0.012986973 -0.009024879 -0.029191038
-0.011038187 -0.0090759713 -0.029128646
-0.0090371445 -0.0090975482 -0.029207127
-0.0070467996 -0.0090773795 -0.029140683
-0.0049739187 -0.0089842137 -0.029177539
-0.0029788103 -0.0090720933 -0.029162215
-0.0011307503 -0.0090211872 -0.029145427
0.00098737015 -0.0090901032 -0.029158717
0.0030568517 -0.0090560475 -0.029110022
0.0050431248 -0.0090218959 -0.029148793
0.0069476552 -0.0090413596 -0.029151687
0.008925084 -0.0090202522 -0.029138269
0.0109451 -0.0090474989 -0.029151268
0.012965771 -0.0090683149 -0.029143741
0.014941989 -0.0090699606 -0.029179338
0.016890187 -0.0090403864 -0.029163297
0.018833455 -0.0089846058 -0.029058855
0.021048032 -0.009056692 -0.029213591
0.023073481 -0.0089773992 -0.029180571
0.02497804 -0.0089270212 -0.02897444
0.027088594 -0.009104141 -0.029163698
0.029141255 -0.0091017103 -0.029211883
0.031038156 -0.0090514943 -0.029144591
0.032964483 -0.00901285 -0.029118354
0.034911085 -0.0090020141 -0.029192962
0.037022434 -0.0090552885 -0.029145198
0.03900082 -0.0089036841 -0.029128021
0.040974315 -0.0089711705 -0.029050862
0.042923097 -0.0089250058 -0.02916047
0.044479262 -0.0088401418 -0.028930714
-0.044777304 -0.0069365492 -0.028916657
-0.043170057 -0.0068901009 -0.028809836
-0.040888496 -0.007165988 -0.029311707
-0.038825855 -0.0070413211 -0.029413646
-0.037101939 -0.0071310732 -0.029198552
-0.035088081 -0.0071610981 -0.029378001
-0.033103351 -0.0070125335 -0.029362656
-0.031131823 -0.0070983414 -0.029250106
-0.028962078 -0.00710278 -0.029273588
-0.027128799 -0.0071148742 -0.02941802
-0.024742233 -0.0070350012 -0.029249573
-0.023021426 -0.0071548745 -0.029269015
-0.020831941 -0.0071212403 -0.029205577
-0.019037461 -0.0070510823 -0.029354392
-0.016946226 -0.0070859906 -0.029250136
-0.014960789 -0.0071005295 -0.029432282
-0.01292613 -0.0071370266 -0.029240662
-0.010840565 -0.0069966852 -0.029268144
-0.0090350397 -0.0070747142 -0.029381406
-0.0069370549 -0.0072221057 -0.02931585
-0.0049890014 -0.0069918111 -0.029366631
-0.0030515394 -0.0070734802 -0.029349692
-0.001078241 -0.0072742067 -0.029341284
0.0010011937 -0.0071271551 -0.029224275
0.0030258894 -0.0069912444 -0.029376907
0.0048655309 -0.0072330297 -0.029316843
0.0069608577 -0.0069947392 -0.029283034
0.0092006819 -0.0070935986 -0.029426137
0.010890385 -0.0071541215 -0.029287821
0.012839463 -0.0071077398 -0.029242547
0.014935086 -0.0072180084 -0.029367676
0.016905664 -0.0070113889 -0.02931726
0.019071115 -0.0071864198 -0.029264878
0.020964503 -0.0069944668 -0.029348264
0.023085169 -0.0071221516 -0.029344704
0.024723431 -0.0069800876 -0.02925125
0.027053842 -0.0071122875 -0.029335711
0.028835366 -0.0072506997 -0.029324902
0.031056464 -0.0070574703 -0.029299861
0.033070084 -0.0071259588 -0.02935713
0.034980364 -0.0071278312 -0.029241716
0.037059773 -0.0071770037 -0.029271044
0.039107073 -0.007196309 -0.029285295
0.041146848 -0.0071044751 -0.029353222
0.042932533 -0.0068767383 -0.029178863
0.044724524 -0.0070902561 -0.0287889
-0.044795129 -0.0050089299 -0.028929969
-0.043267116 -0.0049114814 -0.029139938
-0.041036863 -0.0049375808 -0.029645499
-0.038934495 -0.004917495 -0.029347615
-0.037232853 -0.0051774075 -0.02950591
-0.035083082 -0.0050859707 -0.029550681
-0.032991257 -0.0050814333 -0.029618246
-0.030959412 -0.0051744729 -0.029493051
-0.029104866 -0.0052443934 -0.029589158
-0.027128233 -0.0051453835 -0.02954738
-0.025192574 -0.0051628063 -0.029614437
-0.022997322 -0.0050258846 -0.029365102
-0.021244373 -0.0051699178 -0.029585395
-0.019144222 -0.0051176194 -0.029487913
-0.017091749 -0.0052333632 -0.029582657
-0.015214013 -0.0052163065 -0.029460791
-0.012905091 -0.005261892 -0.029544428
-0.01106166 -0.0050834301 -0.029463908
-0.0087778615 -0.0051302593 -0.029428432
-0.006925982 -0.0052929111 -0.029478639
-0.005142258 -0.0050830035 -0.029475261
-0.0029604658 -0.0052555068 -0.029470423
-0.0011667376 -0.005176241 -0.029552624
0.0007410848 -0.0051832041 -0.029476346
0.0030752108 -0.0052551185 -0.029478652
0.0051019508 -0.0052484595 -0.029483192
0.0068532368 -0.0051358487 -0.029482864
0.0088820141 -0.0051526558 -0.029445248
0.010949661 -0.0051445873 -0.029415095
0.013043961 -0.0051824814 -0.029445665
0.015373865 -0.0051735681 -0.029412735
0.016997116 -0.0051762229 -0.029419819
0.019255009 -0.0052800584 -0.029471453
0.021144738 -0.005119191 -0.029468711
0.023006748 -0.005171394 -0.029356102
0.024830353 -0.0050358069 -0.029438786
0.027100839 -0.0050455402 -0.029394701
0.029251834 -0.0051232474 -0.029436128
0.031003758 -0.005128162 -0.029413773
0.03295666 -0.0051741982 -0.029474732
0.03500443 -0.0052489517 -0.029375728
0.036915291 -0.0051735658 -0.029324936
0.039197691 -0.0049831388 -0.029427279
0.041175064 -0.0051242188 -0.029341539
0.043157708 -0.0048783291 -0.029235188
0.044809882 -0.0050380696 -0.028830014
-0.04482254 -0.0031109457 -0.029005997
-0.043266866 -0.0030687233 -0.029358504
-0.040986314 -0.003204298 -0.029758085
-0.038973067 -0.0031402519 -0.029611899
-0.037131526 -0.0030560014 -0.029589947
-0.035001587 -0.0031157625 -0.029681396
-0.032908965 -0.0031131953 -0.029734874
-0.030785253 -0.0032152256 -0.029660517
-0.029208297 -0.0031099885 -0.029704122
-0.027097544 -0.0031938066 -0.029725458
-0.025093099 -0.0032062619 -0.029581981
-0.023067709 -0.0030893446 -0.029396737
-0.021006748 -0.0030489434 -0.029651742
-0.018927902 -0.0030926671 -0.029662475
-0.017113663 -0.0030504386 -0.029635528
-0.015138905 -0.0031226357 -0.029618219
-0.013048732 -0.0031382993 -0.029708304
-0.010997898 -0.0030163433 -0.029608434
-0.0088426545 -0.0031888478 -0.029659489
-0.0069275564 -0.0030737543 -0.029679758
-0.0050897193 -0.0030465275 -0.029650442
-0.0029463889 -0.003271749 -0.029653883
-0.0013862154 -0.0031101075 -0.029635707
0.00087203772 -0.0031499125 -0.029623872
0.0033286889 -0.0032015231 -0.029623335
0.0050615398 -0.0030919346 -0.029694835
0.0068057743 -0.0032307971 -0.029615555
0.0089621786 -0.0031050057 -0.029601267
0.010972117 -0.0030648967 -0.029659465
0.013136993 -0.0031766768 -0.029611586
0.015192774 -0.0031139599 -0.029649574
0.016851075 -0.003124977 -0.029659128
0.018718908 -0.0030322208 -0.02961481
0.020877585 -0.003062608 -0.029642273
0.022923883 -0.003009079 -0.02930259
0.024869988 -0.0030497969 -0.029536784
0.026928343 -0.0032451104 -0.029685903
0.029006489 -0.0030569965 -0.029680433
0.030968962 -0.0030248493 -0.029645048
0.0330327 -0.0031039554 -0.029704297
0.035088062 -0.0031273828 -0.029652398
0.037072789 -0.0030035782 -0.029619848
0.039189052 -0.0029992084 -0.029503155
0.040981941 -0.0031748903 -0.029606607
0.043106373 -0.0030170877 -0.029435318
0.044828366 -0.0030505448 -0.028917454
-0.0448252 -0.00097524701 -0.028967187
-0.043280538 -0.0010508831 -0.029339332
-0.041089054 -0.0012000799 -0.029886436
-0.038834278 -0.0010645112 -0.029571459
-0.03696559 -0.0011853095 -0.029820044
-0.034832343 -0.0012098154 -0.029942771
-0.033141114 -0.0011517396 -0.029795438
-0.031272884 -0.0012098303 -0.029942781
-0.029057726 -0.0011537233 -0.029838858
-0.026945706 -0.0012889802 -0.029922327
-0.025034122 -0.0011145157 -0.0298042
-0.023250733 -0.00080981554 -0.029405912
-0.0209965 -0.0011887684 -0.029773194
-0.018992463 -0.0011535458 -0.029885592
-0.017148437 -0.0010741365 -0.029764533
-0.014869362 -0.0012336192 -0.029829085
-0.012994243 -0.0010393723 -0.029832058
-0.010959437 -0.0010433411 -0.029773515
-0.0091683026 -0.0011535373 -0.029885583
-0.0069324612 -0.0011746224 -0.029841101
-0.0047654305 -0.0012692311 -0.029756319
-0.0032136296 -0.0010507405 -0.02987377
-0.0012530835 -0.0011337218 -0.029774824
0.00099184236 -0.001221225 -0.029798891
0.0031311584 -0.0012000799 -0.029886425
0.0048709498 -0.0012536491 -0.029781209
0.0069617331 -0.001214128 -0.029791694
0.0091499705 -0.0011835713 -0.029776443
0.011228559 -0.0011801809 -0.029796878
0.012926253 -0.0012000899 -0.029886425
0.014844614 -0.0011956765 -0.029804712
0.016787359 -0.0012040796 -0.02979566
0.018814538 -0.0011261608 -0.029789984
0.020912986 -0.0012127745 -0.029829063
0.023206435 -0.0011154515 -0.02958164
0.024874765 -0.00080263364 -0.029621508
0.026808444 -0.0011730937 -0.029811919
0.02885019 -0.00119452 -0.029833561
0.030981943 -0.0011677298 -0.029807415
0.033082921 -0.0010094863 -0.029783871
0.035023261 -0.0010916173 -0.029826695
0.0371386 -0.0010623471 -0.029731717
0.039294422 -0.00098169991 -0.029563352
0.041022081 -0.0011270515 -0.029814418
0.043271504 -0.0012251729 -0.029425479
0.044813775 -0.00092871755 -0.028967083
-0.044772699 0.00091432442 -0.029029252
-0.043280628 0.00082917337 -0.029151706
-0.04104 0.0011647493 -0.029865986
-0.03889253 0.00098598551 -0.029659782
-0.036917876 0.00082256692 -0.029828496
-0.035038911 0.00094015733 -0.029897664
-0.033004459 0.00093556044 -0.029836442
-0.031014929 0.00084294676 -0.029888112
-0.029115852 0.00087635615 -0.029841939
-0.02707438 0.00087939802 -0.029898627
-0.024832239 0.00090475567 -0.029808983
-0.023087543 0.0011115919 -0.029629324
-0.021116842 0.0010689549 -0.029814666
-0.019126637 0.00098764477 -0.029895172
-0.016910572 0.0011256433 -0.029828697
-0.014813098 0.0010920167 -0.029887637
-0.013150584 0.0010763165 -0.029817263
-0.011127402 0.0010797275 -0.029818514
-0.0090522012 0.001016003 -0.029881328
-0.0068477783 0.00094794686 -0.029780112
-0.0048317513 0.0010860938 -0.029820856
-0.0031681566 0.0010588123 -0.029830255
-0.0012874362 0.00096401089 -0.029785041
0.0010543931 0.00100439 -0.029814158
0.003186296 0.0011804147 -0.029880121
0.0047763339 0.00093080092 -0.029792786
0.00682492 0.00098566047 -0.029789656
0.0090805963 0.0010790428 -0.029818101
0.011336589 0.0011023659 -0.029826889
0.013091457 0.0011297977 -0.029833317
0.014710845 0.0010049086 -0.029793736
0.016885752 0.0011001474 -0.029808288
0.019035026 0.00097863434 -0.029824084
0.021058045 0.0010220722 -0.029797338
0.023106027 0.0010287811 -0.029658578
0.025131442 0.00098299608 -0.029617928
0.026967421 0.00092378329 -0.029839702
0.028880028 0.00076976302 -0.029844847
0.031029601 0.00093647285 -0.029833505
0.03299142 0.00087852695 -0.029823981
0.035112675 0.00097722549 -0.029858209
0.037161835 0.00086862996 -0.02975684
0.039296731 0.0011000374 -0.02962946
0.041159738 0.00094747514 -0.029829338
0.043215726 0.00091153668 -0.029351253
0.044834636 0.00098090363 -0.028823031
-0.044803284 0.0029338691 -0.029082511
-0.043244228 0.0028211917 -0.02910981
-0.040893059 0.0031543416 -0.029764364
-0.038855974 0.002940733 -0.029514674
-0.037239719 0.003032509 -0.029649448
-0.034981739 0.003154272 -0.029718352
-0.03304404 0.0030767999 -0.029719954
-0.031000214 0.0031507977 -0.029756499
-0.029127087 0.0031638381 -0.029672502
-0.027010901 0.0031403501 -0.029777547
-0.025006495 0.0030696772 -0.029657044
-0.023036508 0.0029107132 -0.029474922
-0.021211904 0.0028613177 -0.029581234
-0.018988172 0.0029934337 -0.029611336
-0.017085364 0.002851638 -0.029663006
-0.014916226 0.0028688803 -0.029600209
-0.012852769 0.0030730793 -0.029667532
-0.011150273 0.0028518552 -0.029590987
-0.0089368979 0.0028979508 -0.029703973
-0.0069783428 0.0028489747 -0.029593948
-0.0048559662 0.0028462163 -0.029596798
-0.0030285357 0.0029700059 -0.029701542
-0.0014228282 0.00284357 -0.029599525
0.00095545489 0.002867952 -0.029630488
0.0032911019 0.0030626187 -0.029595839
0.00481094 0.0028138927 -0.029654879
0.0066304985 0.002957914 -0.029558556
0.0089639602 0.0030051183 -0.029612072
0.011280618 0.0029461135 -0.029565215
0.01326081 0.002940547 -0.029568365
0.014736184 0.0030801455 -0.029657798
0.016837532 0.0028418649 -0.029631976
0.018826224 0.0029185559 -0.029622734
0.020903854 0.0029479626 -0.029581821
0.023020994 0.0029506134 -0.029497987
0.024963489 0.0028523528 -0.029513203
0.026968675 0.0029868176 -0.029716056
0.028943149 0.0032003082 -0.029659752
0.031023562 0.002994179 -0.029666552
0.033026919 0.0031365547 -0.029684348
0.03496787 0.0030213711 -0.029718058
0.037121821 0.0030167715 -0.029601863
0.039045412 0.0029041865 -0.029490048
0.041078124 0.002890642 -0.029658465
0.043211374 0.0028250832 -0.029337052
0.044836383 0.0028948563 -0.028767655
-0.044797931 0.0049500605 -0.028855165
-0.043260712 0.004730403 -0.02920937
-0.041057438 0.0049028597 -0.029661672
-0.039005093 0.0049330047 -0.029447615
-0.037243195 0.0050474871 -0.029431462
-0.035074592 0.0051960764 -0.029472159
-0.033147015 0.0053173318 -0.029573508
-0.030871468 0.0052150949 -0.029443797
-0.0289033 0.0053378181 -0.029555656
-0.027002133 0.0053347931 -0.029472658
-0.025062021 0.0049939305 -0.029337531
-0.023037786 0.0050431481 -0.029324749
-0.021117304 0.0050296281 -0.029623374
-0.019012773 0.0047900113 -0.029544244
-0.01712646 0.0049328357 -0.029601837
-0.015085895 0.0050033825 -0.029526319
-0.012923745 0.0048924205 -0.029635392
-0.011100634 0.0049548908 -0.029508516
-0.0087721888 0.0049660853 -0.029540714
-0.0069152303 0.0049175513 -0.029500768
-0.0051846369 0.0049645789 -0.029577976
-0.0028551158 0.0049456321 -0.029513678
-0.0012108983 0.0049133357 -0.029573837
0.00073954125 0.0050091958 -0.029511353
0.0031719988 0.0049732001 -0.02948257
0.0051738108 0.0050035482 -0.029475473
0.0068702698 0.0049525234 -0.029553911
0.0088889226 0.0049085012 -0.029496482
0.011060174 0.0049995626 -0.029437326
0.012950818 0.005003531 -0.029507123
0.014920979 0.0050992607 -0.029487317
0.017201221 0.0049341526 -0.029437756
0.019086583 0.004888081 -0.02947351
0.021054888 0.0049160123 -0.029524354
0.02296387 0.0049763918 -0.029284822
0.024820464 0.004944026 -0.029474394
0.02711135 0.0050393753 -0.029517028
0.029007426 0.0051895049 -0.02935957
0.031179385 0.0051915389 -0.029497381
0.033143241 0.0051567685 -0.029370762
0.035064094 0.005191871 -0.029462194
0.037091173 0.0050635375 -0.029265717
0.039177168 0.0050083869 -0.029439099
0.041204758 0.0048892563 -0.029463788
0.043176495 0.004778008 -0.029195905
0.044787351 0.0048701712 -0.028950673
-0.044721682 0.0069963536 -0.028904321
-0.043144621 0.0068649538 -0.029197898
-0.04085765 0.007122396 -0.029355194
-0.038859144 0.0070702401 -0.029340006
-0.03688636 0.0071077654 -0.02937736
-0.034892946 0.0071360562 -0.029359099
-0.032981969 0.0071738465 -0.029331652
-0.031241274 0.0070073777 -0.029342627
-0.028939484 0.0070868777 -0.029333018
-0.026852317 0.0072190464 -0.029381178
-0.024838654 0.0070941299 -0.0292912
-0.023159398 0.0070198271 -0.029287286
-0.02097174 0.0072464128 -0.029309575
-0.019044489 0.006971322 -0.029453807
-0.016964717 0.00708206 -0.02922998
-0.015108608 0.0070655239 -0.029366054
-0.012876417 0.0068941563 -0.02924986
-0.011036967 0.0070662908 -0.029336218
-0.0090942578 0.0071476838 -0.029360108
-0.0069923066 0.0070463037 -0.029267946
-0.0049278107 0.0071321959 -0.029378908
-0.0030424132 0.0071323267 -0.029341361
-0.0012040326 0.0070716934 -0.029300852
0.00097816833 0.0071538137 -0.029273948
0.0030616315 0.0070391488 -0.029440505
0.0049116164 0.0071983323 -0.029189702
0.0069911834 0.0071528666 -0.029340534
0.0090209274 0.0069487174 -0.029346475
0.010958264 0.0071540531 -0.029338909
0.01295509 0.0070696473 -0.029314026
0.014887491 0.0070746867 -0.029236633
0.016927978 0.0071270135 -0.029375814
0.018841391 0.0070220819 -0.029370887
0.020946892 0.0071293605 -0.029308118
0.023113549 0.0071064681 -0.02914888
0.024804449 0.0070362291 -0.02922383
0.026967185 0.0069869524 -0.029316127
0.029099589 0.007193733 -0.029352797
0.031030243 0.0071378113 -0.029261151
0.033057891 0.0071314611 -0.029311916
0.034854125 0.0070127067 -0.029286355
0.037102494 0.0071241944 -0.029234758
0.039117366 0.0070871552 -0.029181225
0.040979069 0.007056783 -0.02936697
0.043094095 0.0070928647 -0.029174995
0.044678424 0.0070371754 -0.028935608
-0.044751056 0.0091038421 -0.028681781
-0.042959202 0.0089694476 -0.029199276
-0.041023824 0.0090454053 -0.02935694
-0.038815182 0.0090495246 -0.029186374
-0.037201971 0.0090072611 -0.029204799
-0.034990523 0.0092020519 -0.02928943
-0.03296918 0.0091124615 -0.029211735
-0.031028751 0.0090607507 -0.029355627
-0.029105496 0.0090734279 -0.029323392
-0.027074544 0.0091573736 -0.029252557
-0.025006833 0.0089830169 -0.029248234
-0.02317103 0.0089799184 -0.029226601
-0.020953337 0.0091604972 -0.029319976
-0.01886984 0.0092060799 -0.029257331
-0.016982477 0.0090209637 -0.029336892
-0.015127938 0.0090158358 -0.029230051
-0.013007289 0.0090877302 -0.029321937
-0.011004326 0.0090545863 -0.029293492
-0.0090314951 0.0090213409 -0.029323861
-0.0070580547 0.0090552494 -0.02935384
-0.005009043 0.0090406351 -0.029187616
-0.0030173063 0.0090788081 -0.029242845
-0.00119932 0.0090186745 -0.029369226
0.00094925734 0.0090686958 -0.029236156
0.0031126845 0.0090459911 -0.029242445
0.0050607654 0.0091916174 -0.029334413
0.0070317141 0.0090464111 -0.029227627
0.0089813489 0.0090511059 -0.029320376
0.011019491 0.0090686958 -0.029309908
0.01291542 0.0090095 -0.029267512
0.015022635 0.0090586487 -0.02922545
0.017038986 0.0090094628 -0.029318275
0.018831331 0.0090680085 -0.029224724
0.020940095 0.0090822037 -0.029262632
0.023040138 0.0090885581 -0.029293332
0.024893429 0.0090029202 -0.029191967
0.027043071 0.0089440374 -0.02922943
0.029074406 0.0090365 -0.029179761
0.031003142 0.0090084067 -0.029309861
0.032913499 0.0090120956 -0.029247988
0.034943145 0.0091487411 -0.029193653
0.036994584 0.0089188023 -0.029231006
0.039118707 0.0090845441 -0.029099062
0.041093715 0.0089785028 -0.029194804
0.042954117 0.0090027796 -0.029233154
0.0445318 0.0090748761 -0.028902855
-0.044568174 0.010711115 -0.028468553
-0.042969603 0.010817908 -0.028975964
-0.040988356 0.010911215 -0.028867537
-0.038927339 0.010868527 -0.028863832
-0.037013039 0.01091382 -0.028926589
-0.03496087 0.010893398 -0.028882686
-0.032925777 0.010927573 -0.028910842
-0.030936804 0.010840902 -0.028955135
-0.029038804 0.01098262 -0.028942712
-0.027003003 0.010930306 -0.028885806
-0.024970327 0.010884205 -0.028796561
-0.023019321 0.010932066 -0.028816557
-0.020848304 0.010775929 -0.028947862
-0.019023066 0.010973603 -0.028871758
-0.016992019 0.010865917 -0.028895294
-0.014908557 0.010836846 -0.028970649
-0.012909775 0.010852604 -0.028842289
-0.010977356 0.010806154 -0.028946254
-0.0090840878 0.010912334 -0.028898073
-0.0068914583 0.010825495 -0.02886888
-0.0050459034 0.010773133 -0.028962558
-0.0031394444 0.010893884 -0.028941045
-0.00098153704 0.010945257 -0.02884564
0.00096671062 0.010874522 -0.0288628
0.0029025918 0.010797839 -0.028932998
0.0049537574 0.010851702 -0.028908033
0.0070189717 0.010922395 -0.028881768
0.009149937 0.010820148 -0.028892627
0.010988021 0.010867528 -0.028865514
0.01298899 0.010833559 -0.028885322
0.015000662 0.010986093 -0.02888255
0.017193267 0.010776544 -0.028872147
0.019166309 0.010831602 -0.028933465
0.021047184 0.010930832 -0.028860245
0.023110548 0.010900321 -0.028746571
0.025000192 0.010889101 -0.028739423
0.026993843 0.010879331 -0.028844936
0.028985159 0.010970533 -0.028936245
0.031000771 0.010920394 -0.028817138
0.033087641 0.010940428 -0.028829224
0.034960922 0.010868433 -0.028824136
0.037000559 0.010935787 -0.02884871
0.038994435 0.010944972 -0.028742189
0.041033812 0.010882505 -0.028820345
0.042887796 0.010878662 -0.028834319
0.044320747 0.010954688 -0.028622502
-0.044317067 0.012573883 -0.028357387
-0.043007482 0.012880107 -0.028474262
-0.041044824 0.012942259 -0.02845623
-0.039180081 0.012815364 -0.028397219
-0.03691658 0.0129496 -0.02847296
-0.035020862 0.012861366 -0.028458204
-0.033010531 0.012920332 -0.02849498
-0.031116493 0.012920891 -0.028461583
-0.02898505 0.012881438 -0.028469674
-0.027035795 0.012942263 -0.028488582
-0.025078384 0.01281704 -0.028417675
-0.022982238 0.012835172 -0.02844142
-0.021004848 0.012891664 -0.0284563
-0.019056533 0.013023766 -0.0284106
-0.017117288 0.012911507 -0.028480073
-0.015122826 0.012883535 -0.028445372
-0.012977966 0.012941801 -0.028468434
-0.01100512 0.012926552 -0.028447578
-0.0089531457 0.012980987 -0.028438453
-0.0069930176 0.012905921 -0.028437428
-0.0049102069 0.012779367 -0.028524736
-0.0029995064 0.01282819 -0.028449375
-0.00099215202 0.012932187 -0.028437022
0.0010451227 0.012944957 -0.028437879
0.0030886943 0.01285903 -0.028460832
0.0050312402 0.012941199 -0.028435593
0.0070250728 0.012965381 -0.028415104
0.0089424429 0.012818311 -0.02844635
0.011029394 0.012946829 -0.028473103
0.012922788 0.012876877 -0.028456368
0.014894667 0.01298939 -0.028403429
0.017074788 0.012811187 -0.028473895
0.018987462 0.012948018 -0.028380957
0.021016676 0.012963004 -0.028424647
0.022950497 0.012732456 -0.028367188
0.025106169 0.012792747 -0.028486894
0.027076513 0.012946199 -0.028405135
0.029066328 0.012906092 -0.028407188
0.031066649 0.012876429 -0.028423321
0.033097181 0.012875569 -0.028485287
0.03498809 0.012839195 -0.028391263
0.036815953 0.012817128 -0.028421916
0.038789973 0.012691721 -0.02846908
0.041017193 0.012909017 -0.028391933
0.043017074 0.01283745 -0.02837429
0.044573486 0.012528531 -0.028228968
-0.042881101 0.014072776 -0.028044164
-0.035316978 0.014184356 -0.028087839
-0.030551985 0.014219463 -0.028104275
-0.029305041 0.01407288 -0.028132811
-0.026600152 0.014341488 -0.028036177
-0.025750548 0.014217272 -0.028111875
-0.022366017 0.014054477 -0.028001189
-0.020184666 0.014111891 -0.028052926
-0.014825389 0.014107205 -0.028062046
-0.0091708601 0.014102682 -0.028071761
-0.005497396 0.014006555 -0.028038561
-0.0031906962 0.014097467 -0.028082013
0.002530843 0.014124036 -0.028043866
0.0092554092 0.014162362 -0.028063476
0.010592334 0.014044292 -0.028078809
0.015720934 0.014236271 -0.028032303
0.016985357 0.014080971 -0.028117001
0.02512911 0.014035031 -0.028286278
0.029067017 0.014347583 -0.028041363
0.031105898 0.014191911 -0.02812174
0.032682508 0.014093317 -0.028131001
0.039042324 0.014316767 -0.028018236
0.040694751 0.014105864 -0.028075635
-0.044190764 -0.016186774 -0.026426986
-0.043034587 -0.016792867 -0.026397066
-0.041061774 -0.016732864 -0.026426584
-0.039076392 -0.016571546 -0.02634065
-0.036925986 -0.016678112 -0.026479585
-0.034967475 -0.016711287 -0.026410643
-0.032929525 -0.016816577 -0.026377242
-0.03106479 -0.016612139 -0.026442973
-0.028993187 -0.016744178 -0.026407534
-0.026909029 -0.016695011 -0.026387494
-0.025252597 -0.016710257 -0.026326094
-0.023058662 -0.016482502 -0.026467683
-0.020996422 -0.016911104 -0.026342949
-0.018861774 -0.016717523 -0.026428968
-0.016888831 -0.016808331 -0.026421651
-0.014891164 -0.016824771 -0.026362903
-0.013023783 -0.016764957 -0.026426231
-0.010976442 -0.016668685 -0.026447777
-0.0090044895 -0.016884807 -0.026350083
-0.0067930557 -0.016750237 -0.02638771
-0.0049697272 -0.016765643 -0.026399985
-0.0031174019 -0.016669052 -0.026501669
-0.0011357451 -0.016843129 -0.026340619
0.00097861246 -0.016839316 -0.02636186
0.0032165668 -0.016698109 -0.026410084
0.0051292381 -0.01666666 -0.026427923
0.0071015554 -0.016876817 -0.026367826
0.0089709954 -0.016815554 -0.026382593
0.010902629 -0.016769703 -0.026335943
0.013068372 -0.016685363 -0.026470995
0.014965894 -0.01675714 -0.026290998
0.016813852 -0.016736947 -0.026377488
0.018869439 -0.016768936 -0.026338013
0.021037154 -0.016752534 -0.026401017
0.022935774 -0.016671447 -0.026314097
0.024899097 -0.016566012 -0.02636162
0.026923085 -0.016816946 -0.026380239
0.029075067 -0.016678689 -0.026375493
0.030925628 -0.016623322 -0.026419472
0.033001106 -0.016646829 -0.026465293
0.035026934 -0.016639531 -0.026345717
0.036739264 -0.016694635 -0.026367372
0.038947165 -0.016657565 -0.026354991
0.041156039 -0.016613461 -0.026400609
0.042925004 -0.016661497 -0.026316354
0.044140153 -0.016705595 -0.026162937
-0.044516679 -0.014842003 -0.026749438
-0.042926729 -0.014997759 -0.027073218
-0.040951934 -0.014871774 -0.027123457
-0.038957089 -0.01495716 -0.026920449
-0.037115581 -0.014971607 -0.027014676
-0.035001367 -0.01505377 -0.027039146
-0.033006527 -0.015050338 -0.02700652
-0.031016381 -0.014975307 -0.027037658
-0.029051363 -0.014949379 -0.027064895
-0.02701349 -0.015108502 -0.02706605
-0.024943911 -0.014986178 -0.026929786
-0.023150237 -0.014898082 -0.026942506
-0.021032596 -0.015022512 -0.027110867
-0.019113524 -0.015011595 -0.02700845
-0.017057899 -0.015031938 -0.026971731
-0.014982796 -0.015037893 -0.027090773
-0.01303487 -0.015026772 -0.027017513
-0.011055168 -0.014981249 -0.026945008
-0.0090229763 -0.015075332 -0.027031705
-0.0069765267 -0.015131657 -0.026945526
-0.0050445613 -0.014913398 -0.027004333
-0.0030292487 -0.015027015 -0.027015202
-0.0010290552 -0.014949846 -0.027017741
0.00096214545 -0.015037037 -0.026967879
0.0029405134 -0.015060452 -0.026990248
0.0049166824 -0.014912662 -0.027005401
0.0069834944 -0.01494808 -0.027043592
0.008998231 -0.015097676 -0.026969705
0.01107457 -0.014949961 -0.026998954
0.013129875 -0.015117741 -0.026905945
0.014992611 -0.014989086 -0.02700796
0.017087348 -0.015016013 -0.026950875
0.019151634 -0.014994748 -0.027027385
0.021064384 -0.015112067 -0.026904905
0.022920387 -0.014981386 -0.026980413
0.024905335 -0.0149659 -0.026829176
0.026975667 -0.014992714 -0.026983714
0.028960597 -0.015084326 -0.026920285
0.030990291 -0.014999968 -0.026922358
0.032952759 -0.01500706 -0.027010337
0.035004675 -0.01507957 -0.026882729
0.036990996 -0.015013282 -0.026936663
0.038930129 -0.014915366 -0.026799243
0.040961564 -0.014868683 -0.027000248
0.042976309 -0.015019791 -0.026907559
0.044478357 -0.014850058 -0.02676966
-0.044776101 -0.01282732 -0.026771463
-0.043427575 -0.013000103 -0.027000537
-0.040996488 -0.013322622 -0.027354937
-0.038771849 -0.013206385 -0.027388413
-0.037337288 -0.013015282 -0.027114706
-0.034984909 -0.013097627 -0.02724465
-0.03286498 -0.012947335 -0.027262622
-0.030868147 -0.012994874 -0.02736444
-0.028756678 -0.013050837 -0.027300199
-0.026895966 -0.013103542 -0.027305447
-0.024776256 -0.013025489 -0.027328841
-0.023047594 -0.013117504 -0.027229749
-0.020964015 -0.013270642 -0.027332084
-0.01911632 -0.013233177 -0.027290378
-0.017006546 -0.01343994 -0.027281174
-0.015056342 -0.013313836 -0.027300252
-0.013092016 -0.013196649 -0.027324049
-0.011129824 -0.013215154 -0.027397593
-0.0090410765 -0.013425028 -0.027254065
-0.0070668054 -0.013328298 -0.027331764
-0.005020875 -0.013132836 -0.027296323
-0.0028263449 -0.013187379 -0.027386384
-0.0010939091 -0.013303726 -0.027192244
0.00097962201 -0.013317103 -0.027415814
0.0030001053 -0.013267715 -0.027377689
0.0051148925 -0.01309168 -0.027294055
0.0069618141 -0.013325836 -0.02728123
0.008965008 -0.013316352 -0.027388379
0.011071952 -0.013331601 -0.027352104
0.01304684 -0.013225355 -0.027194148
0.014975242 -0.013212149 -0.02742728
0.016900722 -0.013433645 -0.027256547
0.019024052 -0.013200631 -0.027307034
0.020979205 -0.013362665 -0.027346799
0.022980919 -0.013188673 -0.027231343
0.024776636 -0.01306467 -0.027148696
0.027025325 -0.012977047 -0.027222598
0.028941002 -0.013147848 -0.027241981
0.031071186 -0.013067981 -0.027338926
0.033084605 -0.01301814 -0.027302228
0.034881786 -0.013093081 -0.027155152
0.037040733 -0.013086781 -0.027143782
0.039005063 -0.013030482 -0.027159762
0.040973287 -0.013242492 -0.027288795
0.043132678 -0.013247308 -0.02710476
0.044750184 -0.012894146 -0.02682613
-0.044813722 -0.011079854 -0.026908636
-0.04342404 -0.011035678 -0.027012549
-0.041007008 -0.011496829 -0.027622592
-0.038942717 -0.01144187 -0.027418777
-0.037289228 -0.01143627 -0.027499914
-0.034928527 -0.011466206 -0.02762422
-0.03269916 -0.011458595 -0.027625632
-0.030939812 -0.011554559 -0.027669882
-0.028855588 -0.011270896 -0.02757108
-0.026731862 -0.011428309 -0.02752783
-0.02477245 -0.011217361 -0.027562914
-0.022865614 -0.011425709 -0.027410796
-0.020946695 -0.011657768 -0.027501903
-0.019092277 -0.011524154 -0.027582897
-0.017003983 -0.011426061 -0.027628204
-0.01505445 -0.011669585 -0.027489524
-0.013225716 -0.011562088 -0.027541341
-0.01110175 -0.011620644 -0.027565394
-0.0090245325 -0.011562438 -0.027602151
-0.0070872554 -0.011508313 -0.027460629
-0.0050608814 -0.011582383 -0.027591495
-0.0031475662 -0.011437603 -0.027584393
-0.0013043265 -0.011555297 -0.02754966
0.00095440156 -0.011569134 -0.027577741
0.0031773802 -0.011650038 -0.027459295
0.0051346221 -0.011483305 -0.027597155
0.0071114916 -0.011405299 -0.027600674
0.0089611234 -0.011432525 -0.027496496
0.01114555 -0.011562753 -0.027527681
0.013270725 -0.01161713 -0.027538395
0.014956539 -0.011533212 -0.027610194
0.016962081 -0.011397539 -0.027532231
0.019055502 -0.011580912 -0.027461905
0.020771578 -0.01151205 -0.027621271
0.022856515 -0.011495803 -0.027490763
0.024897292 -0.011352349 -0.027402714
0.026925957 -0.011435308 -0.027592557
0.029034015 -0.01121839 -0.027607214
0.030975292 -0.011303903 -0.027569477
0.032619268 -0.011269432 -0.027520785
0.03494047 -0.011372245 -0.027610628
0.037226081 -0.011171751 -0.027466832
0.039206564 -0.011224549 -0.027414422
0.041033302 -0.011499601 -0.027574761
0.043297105 -0.011189026 -0.027083594
0.044832375 -0.01107661 -0.026917269
-0.044811614 -0.0090897419 -0.026950303
-0.043495882 -0.00910642 -0.026932521
-0.038709261 -0.0087529421 -0.027820399
-0.037878923 -0.0094728917 -0.027715802
-0.034084857 -0.0089681167 -0.027943224
-0.030789971 -0.0099725034 -0.027682543
-0.026450813 -0.0096623395 -0.027783096
-0.024098255 -0.0094759315 -0.027720213
-0.023215426 -0.0092524206 -0.027765734
-0.018692493 -0.0091114156 -0.027879238
-0.014926791 -0.0088418946 -0.027974635
-0.012397826 -0.0097487308 -0.027707696
-0.0093641728 -0.0090414593 -0.027887201
-0.005603075 -0.0092130452 -0.027894914
-0.0024319291 -0.0089630466 -0.027982235
-0.00020909309 -0.0096014878 -0.027746296
0.0026659369 -0.0095422063 -0.027824283
0.0054880977 -0.009299159 -0.027908206
0.0081942081 -0.0090661272 -0.027988523
0.010049462 -0.0098361243 -0.027761191
0.012576222 -0.0096000824 -0.027841657
0.015004754 -0.0093732234 -0.027918994
0.0173406 -0.0091550257 -0.027993381
0.018957376 -0.0098710433 -0.027781576
0.021149337 -0.0096502304 -0.02785641
0.023178846 -0.0089078778 -0.027933773
0.024542196 -0.0093052937 -0.027694216
0.02695024 -0.0098697729 -0.027911872
0.028849781 -0.0096649099 -0.027974337
0.033759832 -0.0098960437 -0.027928948
0.035436332 -0.0097029358 -0.02798745
0.037806671 -0.0093882792 -0.027605768
0.039131753 -0.0094668875 -0.027727857
0.041098416 -0.0097668916 -0.027890831
0.043520328 -0.0090516107 -0.02690763
0.044824068 -0.0091269836 -0.026948279
-0.04483664 -0.0069873384 -0.027080912
-0.043492422 -0.0068906643 -0.02673782
0.02324307 -0.0077971132 -0.027919829
0.043604638 -0.0067139831 -0.026890827
0.044849314 -0.0069247158 -0.027089614
-0.044766501 -0.0050219297 -0.026992209
-0.043512676 -0.0048021469 -0.026849642
0.043598037 -0.004787405 -0.026817808
0.044805851 -0.0049660853 -0.026931901
-0.044835541 -0.0030328431 -0.026963715
-0.04352425 -0.0028756612 -0.026890105
0.043604963 -0.0027970907 -0.026872035
0.044822685 -0.0030574242 -0.027004562
-0.044815253 -0.00093213556 -0.02695071
-0.043541688 -0.00094476296 -0.026825463
0.043573756 -0.00092453748 -0.02677249
0.044808563 -0.00093777897 -0.026959669
-0.044795454 0.00096596091 -0.026976993
-0.043515436 0.00066635391 -0.026850561
0.043614808 0.00069969654 -0.02689065
0.04481864 0.0010361092 -0.027050275
-0.044820804 0.0028554234 -0.027042566
-0.04348116 0.0029258325 -0.026826503
0.043574594 0.0028623741 -0.026856683
0.044855412 0.0029005005 -0.027028777
-0.044822976 0.0050077802 -0.026919026
-0.043545518 0.0048475149 -0.026833413
0.043620944 0.0048465962 -0.026771015
0.044810642 0.0049599605 -0.026987599
-0.04481563 0.0070313541 -0.027006213
-0.043513589 0.006942742 -0.026901575
0.023243487 0.007808256 -0.027920008
0.043590315 0.0068560117 -0.026886571
0.0447938 0.0069963997 -0.026990898
-0.044800706 0.0089511704 -0.026985124
-0.043524943 0.0088592339 -0.026951592
-0.038997769 0.008993092 -0.027797788
-0.037764344 0.0093168421 -0.02775389
-0.034966186 0.0092065912 -0.027909091
-0.029816568 0.0092291217 -0.02796948
-0.023070563 0.0092449784 -0.027780689
-0.019331694 0.0099159367 -0.027674496
-0.015632272 0.0097313737 -0.027742535
-0.012567028 0.0090668211 -0.027893102
-0.0087314248 0.0093870908 -0.027869403
-0.0055081248 0.0092262821 -0.02792865
-0.0024232268 0.0090723792 -0.027985364
-0.00032073259 0.009964969 -0.027721405
0.0025513768 0.0098009929 -0.027780503
0.005307138 0.0096436506 -0.027837336
0.0079532266 0.0094925761 -0.027891874
0.010495782 0.0093474034 -0.027944326
0.012940645 0.0092078187 -0.027994633
0.016924918 0.0098559363 -0.027810901
0.019135118 0.009713782 -0.027861357
0.021266162 0.0095767183 -0.027910024
0.023509916 0.0091755316 -0.027801923
0.024614848 0.0093174577 -0.027702412
0.028620914 0.009575041 -0.027940845
0.030523598 0.0097578168 -0.027952433
0.037797242 0.008958376 -0.027738865
0.039147422 0.0094684158 -0.027776426
0.041176796 0.0097026518 -0.027936548
0.043547239 0.0088588418 -0.026939351
0.044831082 0.0088944007 -0.026941322
-0.044815652 0.011004007 -0.027045047
-0.043353595 0.010923818 -0.026975568
-0.040929992 0.011438121 -0.027651206
-0.038791504 0.011164052 -0.027542729
-0.037064567 0.011204153 -0.027505117
-0.035276473 0.011464243 -0.027687395
-0.033146314 0.011384764 -0.027553421
-0.031191748 0.011361297 -0.027627682
-0.029204477 0.011494953 -0.027456319
-0.027090209 0.011262851 -0.027697444
-0.024762547 0.01128303 -0.027547352
-0.023097208 0.011227044 -0.027404053
-0.02080304 0.011388791 -0.027651193
-0.018769521 0.011518049 -0.027525363
-0.016918486 0.011342788 -0.027612871
-0.014907053 0.011556417 -0.027582038
-0.013029484 0.011414321 -0.027678724
-0.010853994 0.011490382 -0.027567869
-0.0090815043 0.011426679 -0.027563017
-0.006977722 0.011299759 -0.027645851
-0.0046652681 0.011405821 -0.027602082
-0.0030902864 0.01118979 -0.027668273
-0.0011798952 0.011429427 -0.027575403
0.00096067577 0.011431889 -0.027567454
0.0032237619 0.011569033 -0.027605549
0.0046577705 0.011280408 -0.027699515
0.0069398116 0.011335693 -0.027611785
0.0090708509 0.011291797 -0.02759715
0.011029691 0.01138629 -0.027618362
0.013117542 0.011358886 -0.027610881
0.015272154 0.011189629 -0.027574569
0.017079784 0.011434768 -0.027496349
0.018622994 0.011321454 -0.027703144
0.020779395 0.011318936 -0.027628083
0.023097215 0.011087332 -0.027364094
0.024857206 0.011390731 -0.027419301
0.026867881 0.011248977 -0.027626956
0.029280066 0.01115294 -0.02760642
0.031098679 0.011234907 -0.027536664
0.032986652 0.011462042 -0.027517194
0.035043918 0.011189457 -0.027598508
0.037033774 0.011081746 -0.027545569
0.039171495 0.011198516 -0.027483335
0.041004829 0.011321847 -0.027597187
0.043302584 0.010949505 -0.027123982
0.044852365 0.010911434 -0.026857989
-0.044750124 0.012885287 -0.026814325
-0.043186769 0.013068643 -0.026887894
-0.0410874 0.013100022 -0.027154449
-0.038887884 0.013057958 -0.027296988
-0.037244335 0.013081155 -0.027303152
-0.035067093 0.013194628 -0.027174966
-0.033111341 0.013182779 -0.027323134
-0.030837672 0.012952265 -0.027375571
-0.028861977 0.013027661 -0.027391691
-0.026900113 0.013080607 -0.027261583
-0.024641126 0.013116537 -0.027224176
-0.023047335 0.013071897 -0.027252175
-0.02089164 0.01319417 -0.027242804
-0.018888686 0.012976271 -0.027351532
-0.017011458 0.012900636 -0.027214903
-0.014962786 0.013117907 -0.027333044
-0.012899138 0.01311537 -0.027163126
-0.010971753 0.013164085 -0.02732412
-0.0091270301 0.012995007 -0.027396163
-0.0070023951 0.01312068 -0.02718731
-0.004906653 0.013107243 -0.027158953
-0.0030915535 0.013067152 -0.027351411
-0.0010797214 0.013120269 -0.02735389
0.00094069657 0.012978552 -0.027287317
0.0030157464 0.012929334 -0.027194275
0.005024354 0.013147548 -0.02728508
0.0070687081 0.01312953 -0.027163574
0.0091211097 0.012966749 -0.027315067
0.011096981 0.013012725 -0.027311128
0.013060265 0.013224254 -0.027160028
0.015059464 0.013095388 -0.027166555
0.016905142 0.012971172 -0.027377157
0.018802417 0.013028743 -0.027355643
0.020865325 0.013053771 -0.027114039
0.022928391 0.013122788 -0.027196711
0.024782883 0.013032438 -0.027192654
0.027000055 0.013097472 -0.027236763
0.028919846 0.013112761 -0.027286505
0.031004522 0.013049505 -0.027281294
0.03299037 0.013052798 -0.027237121
0.035053764 0.013202922 -0.027214736
0.037201855 0.013080845 -0.027084185
0.03911674 0.012996627 -0.027144842
0.040947959 0.013083827 -0.027194565
0.042958472 0.01307591 -0.02707381
0.044701993 0.013091997 -0.026919808
-0.044554096 0.014801443 -0.026557146
-0.042860053 0.015018626 -0.026936676
-0.041006174 0.014948881 -0.02711207
-0.038985923 0.014908494 -0.026935797
-0.03709187 0.015034013 -0.027003311
-0.035057906 0.015024695 -0.027026832
-0.032937121 0.015044746 -0.027008696
-0.030941444 0.014974177 -0.02706359
-0.029018948 0.014931773 -0.027078694
-0.026951103 0.015044178 -0.027001653
-0.024862224 0.014993816 -0.02688719
-0.023098644 0.015073463 -0.026889905
-0.021055693 0.014955385 -0.02705548
-0.019078895 0.014973528 -0.026923798
-0.016953817 0.014918274 -0.027063491
-0.015022376 0.015043932 -0.026936119
-0.013117288 0.014850534 -0.027015977
-0.010996897 0.015035434 -0.026982265
-0.009067378 0.014985111 -0.02699214
-0.0070394012 0.014937076 -0.026958331
-0.0049219071 0.015050911 -0.027001785
-0.0029030861 0.014971443 -0.026966792
-0.00114482 0.014986797 -0.02694056
0.00092182902 0.014955489 -0.026957994
0.0030466237 0.014971098 -0.026955411
0.0049708597 0.015036833 -0.026940038
0.0068562543 0.014929024 -0.026936764
0.009023401 0.014944778 -0.027036466
0.01097771 0.015023193 -0.02687544
0.012985585 0.014957138 -0.026962457
0.015047254 0.014902668 -0.027001783
0.017027965 0.015008663 -0.026942778
0.019132651 0.014924664 -0.026963525
0.021027485 0.014949946 -0.026920615
0.022974173 0.014944882 -0.026877686
0.024893342 0.014997022 -0.026939547
0.027021836 0.014998239 -0.02692093
0.029022472 0.015011288 -0.026994584
0.030932928 0.014981644 -0.026937382
0.033007357 0.014984799 -0.026936987
0.034999184 0.014986989 -0.027033554
0.036890455 0.015044585 -0.026887702
0.03897389 0.014917466 -0.026804298
0.040995792 0.014923336 -0.026894433
0.042953372 0.01505613 -0.026864715
0.044413544 0.014932454 -0.026703849
-0.044574738 0.016150624 -0.026043817
-0.042856343 0.016736137 -0.026480265
-0.040878691 0.016575532 -0.026499402
-0.039154328 0.01664805 -0.026374403
-0.03685334 0.016661763 -0.026389496
-0.034917776 0.016697794 -0.026480949
-0.033151001 0.016736407 -0.026440628
-0.031139493 0.016637098 -0.026479665
-0.028992465 0.016706759 -0.026450509
-0.027078794 0.016712287 -0.026414992
-0.025025202 0.016572639 -0.026399817
-0.022891361 0.016676461 -0.026476843
-0.021007534 0.016675096 -0.026477244
-0.01887738 0.01672061 -0.026479168
-0.016876483 0.016731421 -0.026415065
-0.014810801 0.016667807 -0.026456462
-0.012929035 0.016651621 -0.026518553
-0.011191741 0.016615856 -0.026503313
-0.0089273173 0.016679903 -0.026466278
-0.0069358 0.016731273 -0.026430123
-0.0050377753 0.016735874 -0.026404565
-0.00307691 0.016733438 -0.026414378
-0.00090868562 0.01664713 -0.026498938
0.001014113 0.016678452 -0.026457779
0.0029886514 0.016772488 -0.02637356
0.0050645825 0.016656235 -0.02643854
