# .PCD v0.7 - Point Cloud Data file format
VERSION 0.7
FIELDS x y z
SIZE 4 4 4
TYPE F F F
COUNT 1 1 1
WIDTH 1258
HEIGHT 1
VIEWPOINT 0 0 0 1 0 0 0
POINTS 1258
DATA ascii
-0.0088978456 -0.021320177 -0.021056447
-0.0072363531 -0.021203747 -0.021297222
-0.0050432351 -0.021220336 -0.021144129
-0.0030018168 -0.021146066 -0.021241888
-0.0010375706 -0.021262763 -0.021177022
0.00099000009 -0.021290353 -0.021144737
0.0030107698 -0.02117837 -0.021161139
0.0050812652 -0.021165254 -0.021242771
0.0071416353 -0.021262623 -0.02120265
0.008856006 -0.021361396 -0.021202285
0.010879351 -0.021231676 -0.02111176
0.013268023 -0.021150041 -0.021324113
0.014812522 -0.021132693 -0.021242995
0.01712852 -0.021259053 -0.021199604
0.018888328 -0.021374293 -0.021198714
0.021006471 -0.021199986 -0.021177152
0.023148848 -0.021106916 -0.021287709
0.024794826 -0.021280216 -0.021139488
0.027016457 -0.021222817 -0.021260358
0.029216608 -0.021217344 -0.021129033
0.031017305 -0.021420535 -0.021156887
0.032784279 -0.021187916 -0.021237792
0.034943275 -0.021139393 -0.021222381
0.037073206 -0.021303678 -0.021254895
0.039140958 -0.021309949 -0.021190975
0.041134156 -0.021093814 -0.021192439
0.04318019 -0.021096319 -0.02102273
0.044749904 -0.020894559 -0.020924924
-0.044815242 -0.018917097 -0.020926721
-0.04358609 -0.018939706 -0.021081835
-0.038246009 -0.019982517 -0.021445036
-0.035460442 -0.019616425 -0.021999341
-0.033091009 -0.01981606 -0.021845227
-0.024315953 -0.019906163 -0.020886611
-0.023203503 -0.01995506 -0.021567479
-0.015098929 -0.019971853 -0.021780163
-0.01303634 -0.019882619 -0.021856409
-0.0039773881 -0.019865751 -0.021896433
0.0044073761 -0.019845009 -0.021934878
0.0072904825 -0.019968508 -0.021868885
0.012193531 -0.019824266 -0.021970969
0.020539969 -0.019992352 -0.021833938
0.023112833 -0.019284248 -0.021659922
0.027228713 -0.019972622 -0.021869611
0.033487648 -0.019950211 -0.021904003
0.037536345 -0.01986246 -0.021646187
0.038918465 -0.019836187 -0.021615934
0.043536369 -0.018844634 -0.02102318
0.044824101 -0.018902462 -0.021104733
-0.044767007 -0.016944174 -0.020963153
-0.043569088 -0.01705263 -0.020984069
0.043573204 -0.017054344 -0.020945847
0.044791095 -0.017023139 -0.020951424
-0.04481433 -0.015035838 -0.020941421
-0.043518133 -0.015101662 -0.021185853
0.04354766 -0.015099291 -0.021098204
0.044846904 -0.015005719 -0.021251388
-0.044790812 -0.013014634 -0.021000871
-0.043537248 -0.01315379 -0.021325124
0.043559864 -0.013115818 -0.021165159
0.044839971 -0.012950985 -0.021143859
-0.044780254 -0.011090969 -0.020983307
-0.04357338 -0.011185728 -0.020982511
0.043537058 -0.011218139 -0.021045709
0.044788588 -0.010982809 -0.021041168
-0.044807941 -0.0090365438 -0.02095576
-0.043560151 -0.0089691952 -0.020985318
0.04355064 -0.0090006655 -0.020943265
0.044824336 -0.0089970548 -0.020975621
-0.044802427 -0.0070701698 -0.020960027
-0.043526717 -0.0070764585 -0.021040514
0.043570064 -0.0069699432 -0.021056579
0.044821572 -0.0069138939 -0.02103816
-0.044775151 -0.0050144875 -0.021038454
-0.043543283 -0.0050393394 -0.02126373
0.043557324 -0.005022319 -0.021066574
0.044813532 -0.0049535581 -0.021180924
-0.044794969 -0.0029305816 -0.020943357
-0.043500565 -0.0029926708 -0.021215539
0.04355631 -0.0029179291 -0.021108719
0.044838708 -0.003003319 -0.021041526
-0.044776928 -0.00084058364 -0.020863583
-0.043581568 -0.00097883435 -0.021044942
0.043541886 -0.00091709214 -0.021030556
0.044837929 -0.00095461012 -0.021031536
-0.044768579 0.00097381644 -0.02084809
-0.043586239 0.00100065 -0.020953855
0.043519173 0.0011239838 -0.021012446
0.044805083 0.00099485426 -0.02097315
-0.04480496 0.0028459195 -0.020943038
-0.043543614 0.0027284916 -0.021099454
0.043570008 0.0027355053 -0.021089349
0.044836044 0.0029784143 -0.021061935
-0.044796102 0.0050248131 -0.021080829
-0.043529339 0.0048391591 -0.021227278
0.043545455 0.004828508 -0.021019738
0.044844929 0.0049974876 -0.021215674
-0.044769611 0.0071345069 -0.020949727
-0.043515228 0.0068422891 -0.021118924
0.043579113 0.0067861662 -0.021061884
0.044807207 0.0069425954 -0.020997688
-0.044802137 0.0090777036 -0.02102506
-0.043588698 0.0089241741 -0.020949123
0.043521646 0.0088915369 -0.021008454
0.044815637 0.0089452267 -0.021002062
-0.044806562 0.011056168 -0.020960795
-0.04353264 0.011092735 -0.021024968
0.043557201 0.011061925 -0.02099381
0.044813678 0.011079066 -0.021020826
-0.044763733 0.012948048 -0.021007571
-0.043509807 0.013113624 -0.021256784
0.043571986 0.013051489 -0.021088
0.044810623 0.012997859 -0.021152131
-0.044792771 0.014992886 -0.020998683
-0.043543026 0.014920648 -0.021305604
0.043544047 0.014971703 -0.021153856
0.044832148 0.014919284 -0.021221034
-0.044779815 0.017047558 -0.020943355
-0.04358137 0.016994711 -0.020963375
0.043537464 0.017043404 -0.020990109
0.044817023 0.017071599 -0.021048319
-0.044776198 0.018968832 -0.020954564
-0.043571346 0.018873382 -0.021076633
0.044824008 -0.01288596 -0.022959987
-0.035155594 0.019761682 -0.021928113
-0.025156736 0.01993813 -0.02186805
0.026525185 -0.017571006 -0.023789875
-0.014372468 0.019778311 -0.021992367
0.0045925081 0.019982934 -0.021865528
0.012359262 0.019966364 -0.021900486
0.019590855 0.019950509 -0.02193306
0.0041135023 9.7735785e-05 -0.022479482
-0.016880568 -0.019278949 -0.02328055
0.026304811 0.019858658 -0.021983813
0.037677974 0.019691646 -0.021384519
0.039794162 -0.0005523013 -0.022042625
0.043538503 0.019127762 -0.021120721
0.04479624 0.018990133 -0.021075616
-0.044776432 0.020812962 -0.02077988
-0.043291908 0.020963896 -0.021128517
-0.023370219 0.014766756 -0.022153968
-0.023868142 0.014839664 -0.022029305
-0.027165191 0.016329322 -0.021911152
-0.024657188 0.0152675 -0.022053022
-0.021804413 0.013263361 -0.022344992
-0.023964126 0.014673619 -0.022049839
-0.023392571 0.014272228 -0.022046253
-0.02244159 0.011364141 -0.022423668
-0.024085991 0.014167184 -0.02219769
-0.024747355 0.016856544 -0.022031097
-0.010900869 0.01198223 -0.022281561
-0.011615837 0.01541552 -0.02203453
-0.0065184236 0.010259992 -0.022571322
-0.0102339 0.01400701 -0.022209026
-0.010055548 0.013162447 -0.022415521
-0.010618132 0.013057735 -0.022362765
-0.0047115986 0.015753429 -0.021859974
0.0077682766 0.011203196 -0.022499096
0.0042756586 0.013279337 -0.022110838
0.0033403549 0.013584683 -0.022182969
0.003096882 0.013816741 -0.02214388
0.0023930867 0.014924824 -0.021920441
0.0027189057 0.013766279 -0.022273645
0.0021806839 0.013193585 -0.022088889
0.001981623 0.013727047 -0.022142706
0.0040468704 0.016036192 -0.02179295
0.0012561674 0.013288109 -0.022234382
-0.00093447411 0.012159036 -0.02235797
0.004844333 0.015499935 -0.021916663
0.0030150479 0.011505389 -0.022225581
0.016700838 0.015486953 -0.021990377
0.015453986 0.01283038 -0.022246741
0.016833497 0.01482005 -0.021993458
0.019155374 0.016520239 -0.021901388
0.012831282 0.011666893 -0.022328947
0.029244576 0.020600721 -0.022373378
0.029161068 0.020744415 -0.022119546
0.028302729 0.020489173 -0.022615064
0.029882841 0.020630468 -0.022115393
0.028894063 0.02061158 -0.02234148
0.030531537 0.020642588 -0.022234797
0.030481631 0.020633826 -0.022155816
0.038571797 0.020851161 -0.021334933
0.044682074 0.020959584 -0.020943342
-0.044549 0.022708159 -0.020607358
-0.042909257 0.022989919 -0.021062922
-0.039858237 0.022745222 -0.02115068
-0.037878152 0.022597976 -0.021040032
-0.036521271 0.022748454 -0.021198593
-0.03473898 0.022695929 -0.021229314
-0.03314282 0.022517521 -0.021326797
-0.031405006 0.022678666 -0.021233985
-0.027845923 0.022409456 -0.02139095
-0.023157395 0.022593217 -0.021186909
-0.021512415 0.022467824 -0.021177104
-0.02125416 0.022659224 -0.020982252
-0.018109282 0.022592478 -0.021225309
-0.016293935 0.022428961 -0.021342263
-0.013682092 0.022286883 -0.021458397
-0.01348846 0.022566285 -0.021270551
-0.011663513 0.022554802 -0.021254674
-0.0096397586 0.022375913 -0.021310031
-0.0083431108 0.022506407 -0.021373779
-0.0068457341 0.022486906 -0.021287536
-0.0052972874 0.022430446 -0.021308498
-0.0037128541 0.022501962 -0.021335727
-0.0025880721 0.022372887 -0.021368273
-0.00033947433 0.022513352 -0.021246128
0.0010519329 0.022422029 -0.021379666
0.0018253016 0.022398183 -0.021340745
0.0040061311 0.022474427 -0.021312766
0.0055675148 0.022560434 -0.021187969
0.011178418 0.022228947 -0.021267507
0.011216291 0.022490568 -0.021253699
0.012134406 0.022367289 -0.021329947
0.013855818 0.021928128 -0.0213529
0.018017808 0.022339053 -0.02122022
0.019765308 0.022244146 -0.021196349
0.02161102 0.021999609 -0.021204051
0.025575848 0.022312544 -0.021043463
0.023482388 0.021431476 -0.021372413
0.027380178 0.022067649 -0.021114107
0.029157717 0.021869468 -0.021222543
0.02942552 0.021447431 -0.021281507
0.035582211 0.021778721 -0.021190828
0.032003678 0.021653725 -0.021167589
0.036553558 0.022114301 -0.020940892
0.038658295 0.021444842 -0.021239618
0.04298006 0.022163596 -0.021057835
0.044446774 0.022852557 -0.020667104
-0.043079928 0.024104476 -0.02035594
-0.040502995 0.024280518 -0.020133346
-0.039361686 0.024158001 -0.020290345
-0.036829721 0.024211129 -0.020254245
-0.034707397 0.024218798 -0.02024731
-0.033040948 0.024139103 -0.020200741
-0.031291381 0.024167776 -0.020306438
-0.029087579 0.024175545 -0.020299356
-0.026381746 0.024217606 -0.020255148
-0.02535513 0.024252243 -0.020013481
-0.022770301 0.024152339 -0.020309299
-0.021307185 0.024246037 -0.02019076
-0.019454442 0.024222344 -0.020222545
-0.016823195 0.024173517 -0.020173997
-0.014725268 0.024162203 -0.020303145
-0.012793817 0.024137288 -0.020336106
-0.010839105 0.024112344 -0.020369634
-0.0082706213 0.024197221 -0.020263612
-0.0065483451 0.024101265 -0.02016449
-0.0046429485 0.024270743 -0.020172209
-0.002588816 0.024246037 -0.020205557
-0.00050894171 0.024220884 -0.020239264
0.0011634082 0.024321854 -0.020111501
0.0028641969 0.024142077 -0.020196429
0.0048064366 0.024157196 -0.020325035
0.0069800764 0.024130732 -0.020360142
0.0098343045 0.024220288 -0.020248175
0.01207222 0.024194241 -0.02028349
0.015209228 0.024193998 -0.020142376
0.016636267 0.024140537 -0.020355314
0.018482074 0.024245918 -0.020222083
0.020833388 0.024219155 -0.020258039
0.02272065 0.024326742 -0.020122349
0.025106356 0.024328053 -0.020172715
0.027217885 0.024125895 -0.020274114
0.030795313 0.024139047 -0.02012974
0.032532468 0.024237692 -0.020278186
0.035076603 0.024206638 -0.020314276
0.036555573 0.024482906 -0.020008922
0.039191857 0.024413884 -0.02002269
0.041219197 0.024150331 -0.020142991
0.042932376 0.02410388 -0.020421982
-0.044426601 -0.024377834 -0.019021705
-0.042864233 -0.024823744 -0.018888379
-0.040941142 -0.024821809 -0.01894027
-0.038998839 -0.024692295 -0.018733842
-0.03705078 -0.024753701 -0.018827984
-0.034982819 -0.02482383 -0.01891344
-0.032979637 -0.024836067 -0.01890094
-0.031068243 -0.024834218 -0.018762952
-0.02907701 -0.024829229 -0.018861279
-0.027014317 -0.024805246 -0.018967649
-0.025001114 -0.024611788 -0.018970812
-0.02303814 -0.024654595 -0.018752409
-0.020984704 -0.024834223 -0.01891298
-0.01891073 -0.024776237 -0.018881222
-0.017028488 -0.024849107 -0.018872809
-0.015095658 -0.024770752 -0.018876392
-0.013094807 -0.024852933 -0.018734094
-0.011060922 -0.024815174 -0.0189372
-0.0090419101 -0.0248389 -0.018891765
-0.0070235226 -0.024744485 -0.018868204
-0.0050960206 -0.024814364 -0.018898705
-0.0031333044 -0.024805978 -0.01888632
-0.0010365731 -0.024805661 -0.018823989
0.0011249904 -0.02476191 -0.018857989
0.0030226721 -0.024765624 -0.018886251
0.0049123219 -0.024776423 -0.018860729
0.0069326386 -0.024737187 -0.01888267
0.0089569176 -0.024813985 -0.018831434
0.010989834 -0.024755308 -0.018881349
0.01296026 -0.024725305 -0.018917391
0.015003268 -0.024756072 -0.018893335
0.017057428 -0.024780387 -0.018891349
0.019028518 -0.024754032 -0.018837841
0.021026114 -0.024861034 -0.018816775
0.023037206 -0.024635227 -0.018814443
0.025144964 -0.024704238 -0.018819496
0.027067186 -0.024802957 -0.018800028
0.02896969 -0.024804529 -0.018928615
0.030996256 -0.024822555 -0.018862823
0.033037826 -0.024766209 -0.018883571
0.034972981 -0.024693435 -0.018932648
0.036816895 -0.024773361 -0.018762473
0.039008446 -0.024617428 -0.018886428
0.040997036 -0.024741074 -0.018812129
0.042877939 -0.024713874 -0.018849796
0.044409208 -0.024601277 -0.018525977
-0.044800032 -0.022981575 -0.019006664
-0.043370835 -0.02295877 -0.019006582
-0.041117966 -0.023314081 -0.019055756
-0.038861714 -0.023212783 -0.019200657
-0.037169538 -0.023210026 -0.019007642
-0.034956612 -0.023426864 -0.019002661
-0.032936659 -0.023236314 -0.019140346
-0.031077523 -0.023402883 -0.019015752
-0.028845575 -0.023416983 -0.018915122
-0.027021768 -0.023302751 -0.019024538
-0.024885088 -0.023226392 -0.01905854
-0.023053719 -0.023248991 -0.019096216
-0.020929357 -0.023202138 -0.019185266
-0.019070573 -0.023325562 -0.019208468
-0.017005602 -0.023244491 -0.019222528
-0.015028639 -0.023114359 -0.019128727
-0.012981857 -0.023047592 -0.019187506
-0.010947751 -0.023236614 -0.019107981
-0.0089452993 -0.023350326 -0.019274153
-0.0069547012 -0.023301445 -0.019166522
-0.005154958 -0.023087939 -0.019201785
-0.0030029996 -0.023164598 -0.019089319
-0.0010024299 -0.023047226 -0.019129056
0.0010394624 -0.023220798 -0.019232141
0.0030295288 -0.023254013 -0.019221546
0.0051506436 -0.02333794 -0.019147515
0.0071098907 -0.023033809 -0.019148245
0.0090585668 -0.023218265 -0.019054256
0.011125537 -0.023132218 -0.019314079
0.013173166 -0.023155587 -0.01921148
0.015063354 -0.023274424 -0.019076299
0.017166156 -0.02319622 -0.018940095
0.019060582 -0.023114108 -0.019280337
0.020932743 -0.023154821 -0.019319877
0.022897413 -0.023144733 -0.019092932
0.024746241 -0.023279544 -0.019036764
0.027080385 -0.023192467 -0.01913549
0.028983688 -0.023274325 -0.019010821
0.030958882 -0.023339687 -0.019040367
0.032775693 -0.023264183 -0.018974993
0.034921959 -0.023219729 -0.0190583
0.037020709 -0.023193747 -0.019082697
0.039060585 -0.023265146 -0.019012183
0.041230503 -0.023012502 -0.019199934
0.043078702 -0.023144964 -0.019203255
0.044744037 -0.022956338 -0.019032044
-0.044891443 -0.021062599 -0.018981056
-0.043512188 -0.020981953 -0.019081026
-0.041278213 -0.021709204 -0.019965213
-0.039258115 -0.021913785 -0.019644801
-0.037641559 -0.02183485 -0.019509971
-0.02831614 -0.021833956 -0.01989479
-0.02429904 -0.021557525 -0.019579342
-0.023533287 -0.02183485 -0.019509971
-0.016649932 -0.021896183 -0.01984356
-0.0067311376 -0.021889687 -0.019876029
0.0023910701 -0.021884382 -0.019905221
0.011391073 -0.021958947 -0.019854318
0.018583864 -0.021873713 -0.019957852
0.023582175 -0.021690473 -0.019548899
0.02475193 -0.021883279 -0.019601285
0.026314169 -0.021965504 -0.019903045
0.032533526 -0.021888852 -0.019997161
0.03881041 -0.021850944 -0.019620961
0.043586571 -0.020925296 -0.018895445
0.044829369 -0.021019982 -0.018918259
-0.04481053 -0.018983154 -0.0189656
-0.043544721 -0.019116553 -0.01887876
0.043620221 -0.019124465 -0.019100014
0.044832915 -0.018932382 -0.018829774
-0.044817653 -0.016962722 -0.018982321
-0.04352596 -0.01711973 -0.019015761
0.043574151 -0.017123081 -0.018948635
0.044828922 -0.01697664 -0.018949872
-0.044810362 -0.015035022 -0.018967401
-0.04353293 -0.014980506 -0.019144932
0.043558042 -0.015017129 -0.019004814
0.044831056 -0.015013908 -0.019094516
-0.044836488 -0.012932716 -0.018966725
-0.043542016 -0.012881019 -0.019155158
0.043572862 -0.012932797 -0.018902464
0.044814322 -0.012959546 -0.018980395
-0.044801492 -0.010990241 -0.019051746
-0.043543905 -0.01115266 -0.018881429
0.04357687 -0.011314075 -0.018958664
0.044804726 -0.010956259 -0.019070085
-0.044814482 -0.0090121021 -0.018952889
-0.043521799 -0.0089782113 -0.019075798
0.043563478 -0.0090974327 -0.019076318
0.04484836 -0.0089838719 -0.018954001
-0.044819444 -0.0068734381 -0.018993532
-0.043511592 -0.0069506881 -0.019054711
0.043588683 -0.007021883 -0.018953195
0.044842869 -0.0070057772 -0.01904119
-0.044794768 -0.0049329223 -0.019080237
-0.043542851 -0.0049871448 -0.019095257
0.043580983 -0.0050492953 -0.018938804
0.044792347 -0.0051235217 -0.019126458
-0.044831827 -0.0030480619 -0.018970886
-0.043532722 -0.0029553061 -0.019141659
0.043580029 -0.0028967205 -0.018980015
0.044824939 -0.0031137676 -0.01901084
-0.044843376 -0.00095944747 -0.018957254
-0.043532073 -0.00098315766 -0.018982202
0.043579217 -0.0010091171 -0.019067179
0.044823401 -0.0010154591 -0.018993426
-0.044813532 0.0010837474 -0.019026075
-0.043532647 0.0010841073 -0.018886797
0.043548968 0.0011271083 -0.01893972
0.044813719 0.0010754919 -0.018874664
-0.044812851 0.0030307912 -0.019026706
-0.043523837 0.0028201018 -0.019084284
0.043596026 0.0026891399 -0.018976707
0.044823628 0.0030281644 -0.018967869
-0.044826545 0.0049964739 -0.019019609
-0.04353293 0.0048134895 -0.019103719
0.043562599 0.0048474106 -0.018953774
0.044808898 0.0051154159 -0.019127769
-0.04479637 0.0069378372 -0.018977821
-0.043554422 0.0068497355 -0.019063236
0.04360963 0.0068116761 -0.018918023
0.04479726 0.0071243588 -0.0190192
-0.044815514 0.0090469066 -0.019054569
-0.043526027 0.0089921886 -0.018976135
0.043550305 0.0089070955 -0.019077985
0.044847623 0.0090088742 -0.019006224
-0.044822093 0.011102109 -0.019024095
-0.04350717 0.011127131 -0.019009972
0.043578733 0.011100135 -0.018949291
0.044832312 0.011055751 -0.018991182
-0.044787314 0.012970147 -0.018992363
-0.043558158 0.012929206 -0.019162435
0.043595139 0.013045308 -0.018910907
0.044801388 0.013113231 -0.019091781
-0.044823028 0.014991009 -0.018927716
-0.043557737 0.014860342 -0.019071735
0.043564152 0.014914135 -0.018909892
0.044828173 0.014969462 -0.019049365
-0.044813968 0.017102268 -0.019000664
-0.043525968 0.017059565 -0.019010928
0.043550245 0.017023079 -0.018995669
0.044837032 0.017027961 -0.018956264
-0.044780504 0.019074228 -0.01903582
-0.043521274 0.019051256 -0.018926054
0.043621156 0.019214299 -0.019065434
0.044810392 0.018942995 -0.018846197
-0.044862337 0.020921562 -0.019016523
-0.043498367 0.020809447 -0.019031737
-0.040954143 0.021850467 -0.01989932
-0.023225209 0.017046914 -0.02515362
-0.024831196 0.017182276 -0.025311848
-0.02805987 0.021946788 -0.01983599
0.033971906 0.015366655 -0.025540221
-0.017966449 0.021846473 -0.019957881
-0.007222563 0.021931469 -0.019898038
0.010370314 0.021919668 -0.019950163
0.018720984 0.021991491 -0.019897681
-0.010711145 0.015285484 -0.022242714
0.035112783 0.014487923 -0.022564979
0.032619298 0.021971822 -0.019945454
0.03756687 0.021723449 -0.019391131
0.042304859 0.0066534085 -0.023104688
0.043571323 0.020839486 -0.01890252
0.044822603 0.020874333 -0.018888028
-0.044799905 0.022947863 -0.018963719
-0.043451905 0.02288077 -0.019101074
-0.030178403 0.0055822865 -0.021724002
-0.027632138 0.012393879 -0.020882796
-0.02989438 0.013733048 -0.020702725
-0.027763428 0.0042854124 -0.021925211
-0.021374369 0.007822155 -0.021519814
-0.027310893 0.010982205 -0.02153316
-0.0068803644 0.0081895031 -0.022786129
-0.014540846 0.011499558 -0.021866072
-0.014142684 0.012896644 -0.021537254
-0.014660726 0.013346771 -0.021217043
-0.015013514 0.01213925 -0.021619326
-0.0070553953 0.013229279 -0.021637363
-0.004470537 0.0089763636 -0.022531103
-0.0074763848 0.0088942479 -0.022364242
-0.0018009563 0.010028326 -0.0219413
0.0054195118 0.0087573864 -0.022269784
0.0021472545 0.010831044 -0.02204443
0.0016180363 0.0093169659 -0.022782767
0.0021046558 0.0082269209 -0.022207826
-0.00068084104 0.011719192 -0.021659764
-0.0016237438 0.0086319 -0.022331629
-0.0040300391 0.0058603715 -0.022999197
-0.0031772938 0.010635348 -0.022039117
-0.0051291441 0.0094672805 -0.022278916
0.0016260286 0.011477261 -0.021788914
0.0070969425 0.010600639 -0.021901693
0.0046911296 0.0064409599 -0.022934349
0.0057379208 0.011334327 -0.021901777
0.0060237562 0.012194293 -0.021680918
0.0019883902 0.0092987278 -0.022220766
0.0095472261 0.011198628 -0.021859005
0.015528933 0.012511854 -0.021510031
0.01233661 0.01106141 -0.021645918
0.018499477 0.014728061 -0.020599391
0.024662888 0.010875356 -0.021698589
0.022363555 0.0069341776 -0.022567434
0.024303466 0.013014202 -0.021317476
0.025341468 0.012621803 -0.021239789
0.018245803 0.0093061794 -0.02219684
0.023896247 0.0129056 -0.021285951
0.033016972 0.01563153 -0.0202302
0.017505186 0.010706777 -0.022023369
0.03271617 0.017604489 -0.020168072
0.044762272 0.022863859 -0.018974988
-0.044467703 0.024563521 -0.018628944
-0.042843599 0.024751293 -0.018916838
-0.041085187 0.02488948 -0.018888684
-0.038897276 0.024700625 -0.018769775
-0.03685477 0.024754306 -0.018822946
-0.034955412 0.024818232 -0.018973283
-0.032978546 0.024825251 -0.018923113
-0.03095434 0.024813179 -0.018875139
-0.028994052 0.024827421 -0.018939022
-0.027006177 0.024834612 -0.018939551
-0.0251032 0.024711624 -0.018868569
-0.023006666 0.02456771 -0.01882612
-0.020984042 0.024832396 -0.018890979
-0.018925074 0.024797881 -0.018943425
-0.016934162 0.024750728 -0.018897286
-0.015042696 0.02481842 -0.018909309
-0.013027944 0.024781825 -0.018866478
-0.011006112 0.024778064 -0.0189777
-0.009022478 0.024813177 -0.018963987
-0.0070217391 0.024770683 -0.018910788
-0.0050751832 0.024843117 -0.018752694
-0.0030314992 0.024789868 -0.018957818
-0.0009115623 0.024802133 -0.018908221
0.0010751769 0.024767656 -0.018964747
0.0029872672 0.024770997 -0.018916199
0.0050203302 0.02481054 -0.018797124
0.0070206365 0.024843456 -0.018897781
0.0089221895 0.024790516 -0.018908005
0.010961499 0.024768369 -0.018917458
0.012910912 0.024773721 -0.01894165
0.014944642 0.024714118 -0.018874325
0.017001331 0.024807919 -0.018952705
0.019030076 0.024813686 -0.018864276
0.021003788 0.024801128 -0.018880375
0.023000607 0.024711562 -0.018798862
0.025192779 0.024678009 -0.01886227
0.027058503 0.024725435 -0.018999523
0.028901124 0.024777494 -0.018790079
0.030971976 0.024805747 -0.018880604
0.033113211 0.024781171 -0.018911857
0.035140514 0.024771497 -0.018927574
0.03691455 0.024786212 -0.018791748
0.038971812 0.024527077 -0.018849198
0.041033726 0.024766307 -0.018860169
0.043017909 0.024684381 -0.018962692
0.044246737 0.024654351 -0.018733196
-0.044307292 -0.026334822 -0.016353011
-0.042910408 -0.026407449 -0.016695991
-0.041059047 -0.026412617 -0.016691454
-0.038952835 -0.026341921 -0.016486064
-0.036864404 -0.026474005 -0.016711453
-0.034916218 -0.026398204 -0.016744498
-0.032943498 -0.02639883 -0.01672296
-0.031116778 -0.026451692 -0.016643571
-0.029059423 -0.026391765 -0.016681883
-0.026913594 -0.026440468 -0.016653631
-0.025008107 -0.026395449 -0.016611148
-0.022847869 -0.026401279 -0.016543839
-0.020984987 -0.026431698 -0.016588517
-0.018949013 -0.026420848 -0.016645027
-0.016887298 -0.026396547 -0.016677855
-0.014939606 -0.02638456 -0.016734049
-0.013018786 -0.026392799 -0.016683111
-0.011053217 -0.026448259 -0.016629878
-0.0090640746 -0.026404725 -0.016624963
-0.0070577087 -0.026364125 -0.016641954
-0.0051289499 -0.026409347 -0.016699446
-0.0030651158 -0.026388921 -0.016734712
-0.0010018104 -0.026387881 -0.016631762
0.0011272933 -0.026400313 -0.016735423
0.0030705116 -0.026363811 -0.016665787
0.0050552511 -0.026393581 -0.016628521
0.0070343032 -0.026417768 -0.016599318
0.009046915 -0.026354779 -0.016738717
0.011104083 -0.026413323 -0.016691396
0.013105045 -0.026375396 -0.0166911
0.015003284 -0.026400149 -0.016542008
0.016933758 -0.026413677 -0.016619829
0.019025151 -0.026373059 -0.016642582
0.021032177 -0.02637211 -0.01665608
0.022836735 -0.026324306 -0.016672445
0.025063349 -0.026367852 -0.016757855
0.027006432 -0.0264307 -0.016592039
0.029085174 -0.026360119 -0.016608769
0.031160969 -0.026465353 -0.016623655
0.033117946 -0.026421087 -0.016629541
0.03499642 -0.026375055 -0.016623752
0.036835361 -0.02637873 -0.016622419
0.039203789 -0.026322503 -0.016615404
0.041089054 -0.026395334 -0.01670094
0.042975519 -0.026340354 -0.016679039
0.044140413 -0.026123852 -0.016822413
-0.044793975 -0.024783581 -0.016812818
-0.043087479 -0.025070565 -0.017130585
-0.040963802 -0.025104478 -0.017218458
-0.038914219 -0.02523217 -0.016989626
-0.036991972 -0.025048152 -0.017095026
-0.035060253 -0.025093205 -0.017270228
-0.03321331 -0.025112884 -0.017112749
-0.030977495 -0.025275085 -0.017078176
-0.028903363 -0.025310853 -0.017055262
-0.026883824 -0.025215125 -0.017186524
-0.024899514 -0.0250517 -0.017149711
-0.02312696 -0.02517936 -0.017015502
-0.021048371 -0.02521147 -0.017278988
-0.018939953 -0.025112538 -0.017152468
-0.016951913 -0.025223373 -0.017092524
-0.015071295 -0.025173975 -0.016969046
-0.012904005 -0.025140923 -0.016988862
-0.010912805 -0.025164351 -0.017156882
-0.008921504 -0.025185209 -0.017249538
-0.0069259545 -0.025185272 -0.01697075
-0.0049803052 -0.025209183 -0.017185804
-0.0030557862 -0.025114672 -0.016937122
-0.0009631323 -0.025086213 -0.017075948
0.0010504061 -0.025252769 -0.017101021
0.0030684175 -0.025114661 -0.017044095
0.0050125131 -0.025234019 -0.017086532
0.006979038 -0.02519099 -0.017103363
0.0090287058 -0.025132276 -0.01703636
0.010985848 -0.025288058 -0.017194927
0.012926823 -0.025198795 -0.017051257
0.014998005 -0.025138674 -0.017049823
0.016942533 -0.025172127 -0.017087093
0.018833091 -0.025155121 -0.017103607
0.020986427 -0.025253609 -0.017155016
0.023058768 -0.025194351 -0.017053733
0.024835262 -0.024979088 -0.017025826
0.027090117 -0.025292121 -0.017003829
0.02897555 -0.02520713 -0.017060688
0.030957976 -0.025139282 -0.017142512
0.033003729 -0.02517448 -0.017019151
0.034995966 -0.025168624 -0.017132932
0.037145298 -0.02509298 -0.01698835
0.038922835 -0.025114993 -0.017108968
0.040911466 -0.025136486 -0.017036855
0.04289585 -0.025166545 -0.016948758
0.044740371 -0.024777798 -0.016889166
-0.044833504 -0.022952728 -0.01705466
-0.043451443 -0.023108922 -0.017007886
-0.040915083 -0.023929395 -0.017821092
-0.038817003 -0.023845032 -0.017648822
-0.037980024 -0.023600638 -0.017326951
-0.032592952 -0.023558259 -0.017865311
-0.030882299 -0.023692012 -0.017705839
-0.029197901 -0.023823738 -0.017548811
-0.027539283 -0.023953378 -0.017394226
-0.024351954 -0.02380706 -0.017266307
-0.02306984 -0.023814958 -0.017553005
-0.020897677 -0.023791175 -0.0179611
-0.018935131 -0.02385585 -0.017928999
-0.016803235 -0.023872942 -0.017763315
-0.014896117 -0.023949992 -0.017764155
-0.012869808 -0.023928225 -0.017983735
-0.010728138 -0.02392821 -0.017983705
-0.0090689305 -0.023747705 -0.0179333
-0.0070132152 -0.023820026 -0.017897276
-0.0048850039 -0.023918524 -0.017721226
-0.0030179645 -0.023928225 -0.017983735
-0.00087624043 -0.023928225 -0.017983716
0.00099298987 -0.023742773 -0.017952671
0.0030963854 -0.023852535 -0.017816214
0.0051011653 -0.023930661 -0.017849918
0.0072622127 -0.023928195 -0.017983675
0.0089911502 -0.02392998 -0.017813733
0.011024754 -0.023818582 -0.017920351
0.013196057 -0.023895152 -0.017775094
0.014972386 -0.023928225 -0.017983705
0.017114131 -0.023928165 -0.017983576
0.019247526 -0.02379111 -0.017871635
0.021056831 -0.023884736 -0.01779869
0.022955 -0.023790969 -0.017484153
0.024551971 -0.023631975 -0.017389745
0.026671886 -0.023664832 -0.017889973
0.028620481 -0.023800176 -0.017741827
0.03323707 -0.023603499 -0.01798163
0.034991592 -0.023798248 -0.017747264
0.036713183 -0.023989201 -0.01751731
0.038652308 -0.023641579 -0.017309783
0.041055422 -0.023835564 -0.017929321
0.043417279 -0.023092421 -0.017121907
0.044796787 -0.022900023 -0.016955853
-0.044820122 -0.020973919 -0.016908165
-0.043545566 -0.020826075 -0.016975425
0.043513756 -0.020849286 -0.016961537
0.044823416 -0.020990757 -0.016777188
-0.044842951 -0.018831784 -0.016890705
-0.043483816 -0.019036639 -0.016754009
0.043500438 -0.019129792 -0.017155617
0.044841986 -0.018958552 -0.017039992
-0.044790316 -0.016958674 -0.016947415
-0.043557957 -0.017154612 -0.017055687
0.043524396 -0.017226186 -0.017070821
0.044807464 -0.016907677 -0.01695624
-0.044817753 -0.014976151 -0.016886195
-0.043540463 -0.015156335 -0.017015072
0.043539491 -0.015005711 -0.017119817
0.044817582 -0.014960799 -0.016879983
-0.044825953 -0.012909323 -0.016989889
-0.04356287 -0.013052257 -0.016863648
0.043559246 -0.012909609 -0.017177608
0.04483195 -0.012901921 -0.016909875
-0.044804078 -0.011038467 -0.01687088
-0.043523032 -0.011149725 -0.016921092
0.043515347 -0.0111984 -0.016924586
0.044826973 -0.010986755 -0.016933866
-0.044819701 -0.0089808498 -0.016874552
-0.043594904 -0.0088661481 -0.017176367
0.043472599 -0.0089653777 -0.017092608
0.044835106 -0.009025706 -0.016906725
-0.044823986 -0.0069167139 -0.016852338
-0.043522701 -0.0069994568 -0.016932426
0.043529317 -0.0069348612 -0.017061571
0.044842407 -0.0069092354 -0.016901439
-0.044806667 -0.0050324625 -0.017020309
-0.043560706 -0.0050391876 -0.016855968
0.043571282 -0.0050166799 -0.017213041
0.044811595 -0.0050181369 -0.016903372
-0.044835232 -0.0030783762 -0.016971018
-0.043515768 -0.002992704 -0.016906442
0.04353575 -0.0029588498 -0.017038992
0.044817906 -0.0030589085 -0.016815567
-0.044841141 -0.0009536444 -0.016974974
-0.043527175 -0.00095391873 -0.017019838
0.043484379 -0.00097901793 -0.017046526
0.044846863 -0.00090600667 -0.016973693
-0.044813432 0.00092670473 -0.017006425
-0.043535676 0.0010068034 -0.017074896
0.04346947 0.0011387159 -0.017041294
0.044826098 0.00096005545 -0.016976252
-0.044830136 0.0028852192 -0.016965494
-0.043537889 0.0028014232 -0.0169675
0.043571562 0.0028613207 -0.017143318
0.044830687 0.0029105791 -0.016771156
-0.044825289 0.0050437381 -0.016955711
-0.043547418 0.0048483959 -0.016866952
0.04354424 0.0048952121 -0.017177548
0.044835344 0.0049921195 -0.01686505
-0.044799495 0.0070514474 -0.016879801
-0.043553714 0.006873385 -0.016924422
0.043502603 0.006893686 -0.017048849
0.044808339 0.0069560343 -0.01693929
-0.044823959 0.0089446269 -0.016914099
-0.043490727 0.0088623958 -0.017085109
0.043505818 0.0089805964 -0.017101169
0.044833768 0.0089421412 -0.016945736
-0.044836443 0.011027074 -0.016884588
-0.043563224 0.011049429 -0.016931657
0.043504395 0.01102852 -0.016924703
0.044827625 0.011023121 -0.016955448
-0.044785149 0.01300118 -0.01699513
-0.043563366 0.012915674 -0.016864337
0.043559492 0.012876285 -0.017121933
0.044810843 0.012965196 -0.016942378
-0.044820253 0.014919158 -0.016891096
-0.043555479 0.014945151 -0.016913915
0.043508746 0.01487614 -0.017078053
0.044802632 0.014926318 -0.016880747
-0.044830173 0.017001076 -0.016901428
-0.043492928 0.017101411 -0.017080558
0.043524768 0.017114311 -0.017051715
0.044839263 0.016987255 -0.01693498
-0.044800427 0.019006934 -0.017017566
-0.043478701 0.0191769 -0.017104276
0.043527212 0.019241668 -0.0170752
0.044799026 0.019041086 -0.016930819
-0.04480321 0.021023951 -0.01694705
-0.043545786 0.020679189 -0.016879894
0.043492436 0.020840494 -0.017133702
0.044814896 0.020981515 -0.016799942
-0.044844151 0.022994421 -0.016979517
-0.043576647 0.022898715 -0.016987519
-0.041776538 0.02391988 -0.017440688
-0.039059728 0.02341336 -0.017291944
-0.033489246 0.0019116998 -0.020815512
-0.034019709 0.023564696 -0.017965626
-0.033102408 0.023745084 -0.017757064
-0.030618042 0.023801148 -0.017652493
-0.02895534 0.023916841 -0.017499369
0.0021393942 0.020242425 -0.021780826
0.027053 0.016651221 -0.026518753
-0.020437568 0.023627996 -0.017861616
-0.018906087 0.023749113 -0.017711174
-0.016790256 0.023774743 -0.017719349
-0.015910208 0.023985267 -0.017416906
-0.0089186281 0.023673385 -0.017829817
-0.0068586767 0.023845017 -0.017615955
-0.0055107772 0.023957253 -0.017476063
0.00089669228 0.023659676 -0.017869335
0.0033830702 0.02387774 -0.017597329
0.0093169212 0.023594201 -0.017971735
0.011033669 0.023752332 -0.017774161
0.013275787 0.023879269 -0.017663216
0.019210666 0.023736686 -0.017812546
0.021264508 0.023935199 -0.017564278
0.023268491 0.023544753 -0.017582884
0.0059924256 0.014936397 -0.02705531
0.026777133 0.023756266 -0.017840203
0.02865842 0.023934245 -0.017604005
0.033328682 0.023700595 -0.0179304
0.034927033 0.023889573 -0.017705046
0.0375669 0.023981273 -0.017012369
0.0055026044 0.019223282 -0.022403834
0.041196089 0.023807278 -0.017808555
0.043449603 0.022887474 -0.017028572
0.04481633 0.022964019 -0.016976573
-0.044724364 0.024900997 -0.016888825
-0.039260097 0.023990756 -0.018042903
-0.03579336 0.023412444 -0.018592814
-0.029747101 0.023142623 -0.018682115
-0.025648223 0.022751018 -0.019131854
-0.023515981 0.022387585 -0.019438891
-0.025598932 0.023248944 -0.018751485
-0.02152627 0.021910449 -0.019808583
-0.024052748 0.02281324 -0.01905855
-0.023668544 0.022553967 -0.019149672
-0.022806097 0.022554863 -0.019020481
-0.018937036 0.023932802 -0.01803994
-0.020793865 0.02256445 -0.019059064
-0.012191312 0.021112453 -0.019904217
-0.014192461 0.022020616 -0.019122275
-0.012761987 0.021698855 -0.019208182
-0.0095786545 0.020481318 -0.019850383
-0.014445869 0.022303384 -0.018783182
-0.0052681444 0.021749118 -0.019183796
-0.011060283 0.019998139 -0.019810572
-0.0072714477 0.021320855 -0.01906292
-0.0065829442 0.020723924 -0.019311393
-0.0081170127 0.020071454 -0.019646561
0.010080445 0.020552341 -0.019292656
0.0022018515 0.02171226 -0.018766465
0.012408646 0.020483986 -0.0193056
0.013296428 0.018885324 -0.019695682
0.012314829 0.020187741 -0.019219508
0.013049415 0.020037057 -0.019792985
0.012404904 0.019592216 -0.019473325
0.013216253 0.021098366 -0.018965749
0.013855706 0.020901958 -0.019098248
0.011944976 0.01892438 -0.019899677
0.013451874 0.020295978 -0.019363342
0.015779167 0.021143487 -0.018890196
0.018047089 0.022193499 -0.018595587
0.024496814 0.020543922 -0.0190899
0.025109425 0.020304127 -0.019212179
0.025928119 0.020451088 -0.019128975
0.02755872 0.021111934 -0.018855708
0.027096063 0.020329745 -0.019258153
0.025417505 0.019017769 -0.01969233
0.032791678 0.023154341 -0.018100657
0.039018054 0.021329748 -0.018635245
0.040255267 0.021683529 -0.018589649
0.044678718 0.024788182 -0.01710688
-0.044530034 0.02635017 -0.01643075
-0.043023564 0.026451871 -0.016738206
-0.041087516 0.026471561 -0.016752834
-0.038994424 0.026354725 -0.016591864
-0.036877926 0.026446048 -0.01676501
-0.034897063 0.026432421 -0.016788868
-0.03295486 0.026461607 -0.016694361
-0.031073252 0.026474221 -0.016694361
-0.029090185 0.026413072 -0.016843416
-0.026951144 0.026444253 -0.016748909
-0.024949247 0.02643783 -0.016720122
-0.022775035 0.026480069 -0.016660208
-0.021075198 0.026415786 -0.016694082
-0.018969573 0.026435306 -0.016759066
-0.016865904 0.026401106 -0.016722551
-0.014962588 0.026396947 -0.016882148
-0.012960188 0.02644599 -0.016692916
-0.011072993 0.026435506 -0.016703203
-0.0089874659 0.02641914 -0.016769078
-0.0069419881 0.026391355 -0.016808996
-0.0050462564 0.026406324 -0.016763953
-0.0031111853 0.026378175 -0.016768441
-0.0010399512 0.026497377 -0.016707771
0.001038574 0.026455613 -0.016779425
0.0030105354 0.026462473 -0.016736565
0.0049971421 0.026397906 -0.016780809
0.0070402888 0.026413497 -0.016756874
0.0090063978 0.026348308 -0.016737534
0.011130493 0.026523983 -0.016706573
0.013062258 0.026497347 -0.016710967
0.015112775 0.026420426 -0.016686175
0.017044161 0.026461948 -0.016654752
0.0190659 0.026418915 -0.016749678
0.02110764 0.026456594 -0.016603045
0.022898074 0.026430871 -0.016721083
0.025149774 0.026457552 -0.016620556
0.027053067 0.026476538 -0.016605558
0.029024713 0.02640309 -0.016699906
0.031008029 0.026502937 -0.016657956
0.033094041 0.026504757 -0.016684461
0.035068855 0.026422337 -0.016701916
0.036974888 0.026361352 -0.016744073
0.039053008 0.02632007 -0.01678491
0.04094312 0.026417788 -0.016765427
0.042951576 0.026392393 -0.016705777
0.044172592 0.026073217 -0.016981974
-0.043239191 -0.028101981 -0.014226735
-0.040826418 -0.02810353 -0.014224455
-0.036722451 -0.028113127 -0.014224887
-0.035047993 -0.028114498 -0.014223486
-0.033354759 -0.028115869 -0.014222056
-0.031642497 -0.028117299 -0.014220625
-0.029035129 -0.028119445 -0.014218464
-0.02638799 -0.028121591 -0.014216244
-0.02278161 -0.028116167 -0.014207989
-0.02094765 -0.028117359 -0.014206231
-0.019092232 -0.028118789 -0.014204651
-0.017214894 -0.028120041 -0.014202863
-0.015315369 -0.028121531 -0.014201254
-0.013393089 -0.028122783 -0.014199466
-0.011447802 -0.028124273 -0.014197737
-0.0094789565 -0.028125525 -0.014195859
-0.0074862838 -0.028127193 -0.01419422
-0.0054691136 -0.028128445 -0.014192283
-0.0034272969 -0.028130054 -0.014190525
-0.0013600737 -0.028131366 -0.014188588
0.0007327497 -0.028133035 -0.01418677
0.0028519779 -0.028134346 -0.014184743
0.0049977154 -0.028136134 -0.014182925
0.007170856 -0.028137505 -0.014180869
0.0093716085 -0.028139234 -0.014178991
0.011600763 -0.028140664 -0.014176875
0.013858587 -0.028142452 -0.014174908
0.016146064 -0.028143883 -0.014172763
0.018463254 -0.02814573 -0.014170766
0.02081123 -0.02814728 -0.01416859
0.025591552 -0.028162301 -0.014171481
0.028034002 -0.028164566 -0.014169633
0.03050983 -0.028166652 -0.014167547
0.033019394 -0.028168678 -0.014165401
0.035563439 -0.028170824 -0.014163345
0.040771931 -0.02816093 -0.014150172
0.043424606 -0.028162658 -0.014147669
-0.044618607 -0.02657854 -0.014777584
-0.042967863 -0.02701726 -0.014936903
-0.040977973 -0.027095605 -0.014910561
-0.038891859 -0.026996579 -0.014866199
-0.037049331 -0.027081948 -0.01488583
-0.035000652 -0.027101368 -0.014924838
-0.032991234 -0.027086549 -0.014935329
-0.03094589 -0.02710182 -0.014895159
-0.028994458 -0.027113482 -0.01491785
-0.027045032 -0.027140548 -0.014810351
-0.024950795 -0.026877906 -0.014929388
-0.023072841 -0.027047552 -0.014929016
-0.020923574 -0.02714235 -0.014884129
-0.018989606 -0.027127311 -0.014941554
-0.016988207 -0.027063221 -0.014908377
-0.014968568 -0.027121477 -0.014869533
-0.013020555 -0.027058804 -0.014961644
-0.011098007 -0.027144659 -0.014990673
-0.0090779755 -0.027168253 -0.014895585
-0.0070204386 -0.027101096 -0.014917093
-0.0050216713 -0.027057903 -0.015041701
-0.0030258961 -0.027106415 -0.01486072
-0.0010139464 -0.02713869 -0.014909228
0.0010231058 -0.027154315 -0.014954784
0.0030251364 -0.027120421 -0.014912908
0.0049650357 -0.027141355 -0.014901117
0.0069497367 -0.027011979 -0.014929371
0.0089255581 -0.027138975 -0.014919647
0.011023348 -0.027109532 -0.014952401
0.013011578 -0.027094854 -0.014968703
0.014848395 -0.027214767 -0.014880596
0.016917035 -0.027113896 -0.014900256
0.019009909 -0.027020819 -0.014894919
0.020973586 -0.027104862 -0.014966371
0.023065472 -0.026982632 -0.015064997
0.024944352 -0.026948765 -0.01487605
0.026982632 -0.027049229 -0.014943784
0.02902174 -0.027072495 -0.014922484
0.031026676 -0.027117977 -0.014944032
0.032966211 -0.027069449 -0.014821317
0.035013217 -0.027075354 -0.014837978
0.036949113 -0.027045926 -0.014910977
0.038916748 -0.026983187 -0.014930357
0.041080728 -0.02706678 -0.014944707
0.042936843 -0.026975002 -0.014876055
0.044496465 -0.026783843 -0.014982358
-0.044843014 -0.024841437 -0.014997798
-0.043366447 -0.025154896 -0.015123632
-0.041321717 -0.025558785 -0.015504574
-0.038980938 -0.025531534 -0.015134688
-0.037140772 -0.025531381 -0.01542116
-0.035041973 -0.025604416 -0.015560381
-0.033102222 -0.025557071 -0.015393598
-0.03094402 -0.025696516 -0.015450704
-0.028965317 -0.025681445 -0.015590113
-0.026925797 -0.025649758 -0.015631132
-0.024795258 -0.025612166 -0.015370105
-0.023166927 -0.025381114 -0.01508793
-0.021132639 -0.025594965 -0.015508424
-0.019098211 -0.025650341 -0.01530847
-0.017027659 -0.025499357 -0.015522636
-0.015004309 -0.025662094 -0.015365718
-0.013141157 -0.025713097 -0.0152745
-0.011078351 -0.025581369 -0.015422511
-0.0090650162 -0.025500877 -0.015559363
-0.00700915 -0.025627598 -0.015171057
-0.0048129866 -0.025685173 -0.015249757
-0.0030913963 -0.025635459 -0.015424361
-0.0010718526 -0.02561976 -0.015473705
0.0010910289 -0.02550891 -0.015508289
0.002935508 -0.02546506 -0.015363013
0.0048092003 -0.025666762 -0.015071332
0.0068286834 -0.025658745 -0.015423058
0.0090094609 -0.025631953 -0.015343028
0.010943271 -0.025530018 -0.015492203
0.013101647 -0.025609246 -0.015342093
0.015093319 -0.025563305 -0.015258771
0.016792107 -0.025692301 -0.015194459
0.019231044 -0.025574787 -0.015407706
0.021113925 -0.025553746 -0.015378178
0.022963284 -0.025345657 -0.015443831
0.02479355 -0.02549256 -0.015427091
0.027037397 -0.02545543 -0.015476292
0.028962187 -0.025581406 -0.01524986
0.030986216 -0.025609225 -0.015241452
0.032791242 -0.025616175 -0.015305053
0.034970265 -0.025585882 -0.015409236
0.036928173 -0.025399923 -0.01540038
0.03905746 -0.025433099 -0.015260963
0.041180935 -0.025525665 -0.01531541
0.043325279 -0.025232466 -0.015105014
0.044812221 -0.024873976 -0.015010547
-0.044806089 -0.022932224 -0.014988435
-0.043611228 -0.023023471 -0.01495764
0.043587409 -0.023107948 -0.01498817
0.044778261 -0.022993742 -0.014946387
-0.044793915 -0.021001669 -0.014925825
-0.043520775 -0.020874096 -0.014992992
0.04358856 -0.020841047 -0.014978196
0.044824716 -0.021036845 -0.0150329
-0.044799618 -0.019015944 -0.014996761
-0.043588389 -0.018880824 -0.015191386
0.043658547 -0.018982423 -0.014855603
0.044807687 -0.018917812 -0.015162357
-0.044775169 -0.017003411 -0.014884558
-0.043585055 -0.017109847 -0.015093945
0.043627929 -0.017180851 -0.014963047
0.044784423 -0.016992362 -0.014970299
-0.044801973 -0.014985039 -0.014929296
-0.043571908 -0.015108486 -0.015062776
0.043559521 -0.015139497 -0.015109341
0.044825912 -0.015124168 -0.015023599
-0.044810284 -0.012947151 -0.015068631
-0.0435366 -0.012915725 -0.014944708
0.04362743 -0.012999798 -0.014988875
0.044809192 -0.013018179 -0.014957544
-0.044770781 -0.010901114 -0.014907962
-0.043551158 -0.011048849 -0.015109231
0.04361172 -0.010980265 -0.014991166
0.04476928 -0.010964995 -0.014995238
-0.044789542 -0.0089851432 -0.014987134
-0.043582782 -0.0089177592 -0.015076557
0.043621566 -0.0089559788 -0.014906382
0.044803873 -0.0090309549 -0.014902258
-0.044811785 -0.0069785076 -0.014958551
-0.043614618 -0.0070244456 -0.015045351
0.043589164 -0.0071730907 -0.015074473
0.044809282 -0.0069742301 -0.014940239
-0.044777557 -0.0049702767 -0.014950406
-0.043519773 -0.0050728209 -0.014965423
0.043610111 -0.0051172432 -0.014967885
0.044779882 -0.0049573835 -0.014909671
-0.044775467 -0.0029535226 -0.015024846
-0.043549743 -0.003002065 -0.014960036
0.043599948 -0.0029382065 -0.014929435
0.044827741 -0.0029646587 -0.014749425
-0.044792909 -0.00099147402 -0.015027378
-0.043602806 -0.00098778098 -0.01508252
0.043618809 -0.00096811034 -0.014991587
0.044794254 -0.00096469384 -0.01498372
-0.044764332 0.0010120157 -0.01504361
-0.043611895 0.0010579487 -0.015097331
0.04360953 0.0010488485 -0.015012054
0.044765431 0.0010150364 -0.015018618
-0.044789948 0.0030465741 -0.015018463
-0.043563683 0.0027792172 -0.015019321
0.043610465 0.0027022981 -0.014992322
0.044810422 0.0029791046 -0.01481242
-0.044790197 0.0051358868 -0.014925508
-0.043470215 0.0048369966 -0.01504901
0.043589942 0.0049092853 -0.014981295
0.044806287 0.0050798338 -0.014915928
-0.044785682 0.0070792651 -0.01497972
-0.043587431 0.0069558839 -0.015039206
0.043609809 0.0070384922 -0.015004439
0.044777796 0.0070369085 -0.01490597
-0.044788215 0.0090295197 -0.015107274
-0.043630097 0.0089311656 -0.015111475
0.043607458 0.0089268479 -0.015052957
0.044803958 0.0090334667 -0.014928194
-0.044790924 0.011072921 -0.014845025
-0.043546431 0.01095592 -0.014992635
0.043607708 0.010869137 -0.014832578
0.044796307 0.011073799 -0.015087749
-0.04477315 0.013047906 -0.015039135
-0.04354899 0.013024558 -0.014999051
0.04359483 0.012967102 -0.014987154
0.044799596 0.01308618 -0.014960401
-0.044796929 0.014976832 -0.01493967
-0.043533504 0.015078436 -0.014972018
0.043594737 0.01503814 -0.014992355
0.044818014 0.015106819 -0.014965964
-0.044782806 0.01706217 -0.014900921
-0.04357218 0.017082948 -0.015161645
0.043605022 0.017194826 -0.015122336
0.04479092 0.01710213 -0.015041308
-0.044771522 0.019056888 -0.015018779
-0.043631982 0.018877024 -0.015221577
0.043641139 0.0190545 -0.014830987
0.044796333 0.018954068 -0.015091385
-0.044788461 0.020936241 -0.014886114
-0.043550842 0.020760333 -0.015015315
0.043578602 0.020785253 -0.015068612
0.044820201 0.020922262 -0.015053406
-0.044792064 0.02300092 -0.01504698
-0.043553125 0.023053396 -0.014916325
0.04360145 0.023022966 -0.014997783
0.044770993 0.02302816 -0.01486122
-0.044801071 0.02500231 -0.014854643
-0.041020822 0.023336932 -0.01578786
-0.023925757 0.010851691 -0.020441873
-0.020443929 0.0088441065 -0.021343701
-0.026662061 0.0092955362 -0.020524543
-0.028368684 0.015099183 -0.019001022
-0.021202818 -0.0021496688 -0.024663379
-0.027920848 0.01340357 -0.019472612
-0.02754336 0.010871659 -0.02032112
-0.028141618 0.010932195 -0.020445524
-0.029238615 0.0096270796 -0.020693703
-0.0078154104 0.0080074659 -0.021073414
-0.027698016 0.015151493 -0.01874309
0.0073718773 0.0090837134 -0.02039209
0.0048738769 0.010219804 -0.020339791
0.0094605405 0.0062099127 -0.021241104
0.0081397723 0.0062353732 -0.021381397
-0.001081371 0.01461674 -0.018738206
-0.00069254375 0.014497978 -0.01889981
0.0061466629 0.0024163227 -0.022388613
0.00092089362 0.010058018 -0.020064244
0.00076357834 0.010238587 -0.020154763
-9.3912837e-05 0.0089874296 -0.020486573
-0.00051075208 0.014491965 -0.018961499
-0.00067808124 0.012688505 -0.019179216
-0.0036247533 0.0062712645 -0.021103704
-0.0074636783 0.0023688611 -0.022502398
0.00026988238 0.014608296 -0.018684555
0.0017559237 0.015914591 -0.018407224
-0.0058581876 0.0089811711 -0.020531336
-0.0055118683 0.010140219 -0.019967793
-0.0057875784 0.010129514 -0.020099256
0.0047734701 0.0086798919 -0.020332612
0.025816742 0.016590085 -0.017984146
0.026438842 0.016509295 -0.017746931
0.020002007 0.010248619 -0.021013143
0.027400117 0.011949642 -0.019321149
0.027659029 0.014009808 -0.018530181
0.025936315 0.0082385829 -0.020167155
0.025190249 0.009328614 -0.020005016
0.028890423 0.015411725 -0.018335341
0.030344119 0.016405836 -0.017942332
0.01929858 0.012604198 -0.020604718
0.026124075 0.012027293 -0.019219909
0.037304174 0.02037547 -0.016456584
0.044774778 0.024998134 -0.015053472
-0.044605225 0.026700681 -0.014840213
-0.041716542 0.025537264 -0.015380429
-0.038764626 0.023734558 -0.015957618
-0.038287051 0.025913175 -0.015220711
-0.036555402 0.025798999 -0.015330114
-0.034630746 0.024752239 -0.015716938
-0.033025738 0.023906872 -0.015833622
-0.031379238 0.024694255 -0.015652252
-0.029681092 0.024961758 -0.015620548
-0.023500647 0.023608228 -0.015893385
-0.020826794 0.024370141 -0.015617976
-0.023155067 0.026885498 -0.015023181
-0.015656613 0.022727279 -0.016162988
-0.016399564 0.024708655 -0.015605181
-0.014804455 0.02475868 -0.015546756
-0.013036296 0.024561226 -0.015660891
-0.01053413 0.02300808 -0.016036749
-0.009811203 0.024424601 -0.015696086
-0.0080479207 0.024276495 -0.015775243
-0.0064113005 0.022890531 -0.016120605
-0.0051084012 0.024551351 -0.01561777
-0.0034588957 0.024398891 -0.015621005
-0.0023668113 0.023121351 -0.016060697
-0.00031027518 0.024483483 -0.015732734
0.0013193752 0.024332562 -0.015739046
0.002699001 0.02416648 -0.015805079
0.0036789775 0.023494733 -0.015891034
0.0061732186 0.024463311 -0.015646398
0.0073627788 0.024264865 -0.015754813
0.015730156 0.025943566 -0.01625116
0.016310785 0.02639197 -0.015719872
0.017899454 0.026352786 -0.015760347
0.019718712 0.025970289 -0.016109623
0.020822866 0.026279293 -0.015902082
0.022418141 0.026272254 -0.015850896
0.024368506 0.026573928 -0.015289331
0.024828419 0.026020164 -0.015994674
0.026991494 0.026458642 -0.015733507
0.028435817 0.02636537 -0.01580615
0.029210953 0.026077108 -0.015939463
0.031682711 0.026363378 -0.015665488
0.03319338 0.026441207 -0.015665969
0.036962297 0.026570277 -0.015269291
0.03625587 0.026384698 -0.015781466
0.040613361 0.026301902 -0.015745435
0.044508729 0.026820062 -0.014881955
-0.043237194 0.028094172 -0.014300406
-0.040827945 0.02809605 -0.01429832
-0.036729962 0.028105199 -0.014298499
-0.035057843 0.028106451 -0.014297009
-0.033367112 0.028107941 -0.014295667
-0.031657308 0.028109193 -0.014294118
-0.029053695 0.028111279 -0.014291927
-0.026410401 0.028113365 -0.014289677
-0.022809878 0.028110743 -0.01428315
-0.02097863 0.028111994 -0.014281511
-0.019126013 0.028113604 -0.014279991
-0.017251536 0.028114974 -0.014278293
-0.015354767 0.028116405 -0.014276654
-0.013435408 0.028117836 -0.014274925
-0.011493102 0.028119504 -0.014273375
