# .PCD v0.7 - Point Cloud Data file format
VERSION 0.7
FIELDS x y z
SIZE 4 4 4
TYPE F F F
COUNT 1 1 1
WIDTH 1263
HEIGHT 1
VIEWPOINT 0 0 0 1 0 0 0
POINTS 1263
DATA ascii
-0.0087154321 0.019342018 -0.023306424
-0.0046531246 0.017834738 -0.023496006
0.0043081362 0.011907184 -0.023633499
-0.0047437549 0.021007845 -0.023726016
0.0057002902 0.021227911 -0.023767173
0.011688854 0.01572964 -0.02362906
0.0037768418 0.016585462 -0.023166057
0.012156185 0.018903207 -0.023291778
0.012854024 0.020966457 -0.022659343
0.014040262 0.021251313 -0.022210747
-0.014058873 0.022905864 -0.022244908
-0.012939058 0.022953009 -0.022684563
-0.0095259901 0.021007091 -0.023205686
-0.0021162194 0.014062719 -0.023522422
0.00040314841 0.0097849816 -0.02367403
-0.0047437549 0.023108631 -0.023726016
0.0056845546 0.023220519 -0.023760244
0.020705312 0.012903738 -0.023395976
0.016830433 0.016535139 -0.023280716
0.01823966 0.015885469 -0.023349099
0.013097593 0.02275894 -0.022625448
0.014064997 0.023071781 -0.02218914
-0.014203906 0.024633929 -0.022162512
-0.013020729 0.024960181 -0.022612592
-0.0098156426 0.021907359 -0.023242768
-0.0057701096 0.020335281 -0.023374729
0.0018946443 0.0101062 -0.02340951
-0.0047437549 0.025209414 -0.023726016
0.0056681037 0.025213614 -0.023753017
0.036503281 -9.3500443e-05 -0.022914296
0.014055279 0.020341888 -0.023347123
0.015017867 0.017617209 -0.023169989
0.012867956 0.024926947 -0.022736158
0.014225851 0.024890736 -0.022118986
-0.014440438 0.027174344 -0.022069257
-0.012967489 0.026957432 -0.022643341
-0.011380711 0.023993967 -0.023118656
-0.0065698717 0.015726129 -0.023354838
-0.0026137603 -0.0077153323 -0.023204442
-0.0047437549 0.026609937 -0.023726016
0.0056520402 0.027207136 -0.023745984
0.0026803324 -5.2847899e-05 -0.02300716
0.0096546309 0.0148011 -0.023160875
0.0096147126 0.014999465 -0.023252195
0.012819335 0.026977284 -0.022794144
0.014297388 0.027199712 -0.022091672
-0.014508873 0.029022932 -0.022058092
-0.012948238 0.028969172 -0.022633553
-0.011195739 0.029077746 -0.02320038
-0.0057183853 0.0018035645 -0.023503983
-0.0021883678 -0.017752957 -0.023687225
-0.0047437549 0.028710723 -0.023726016
0.0056360364 0.029201047 -0.023738921
0.00017062388 -0.0072856378 -0.02350793
0.0072566513 0.020805683 -0.023227423
0.0083596837 0.011733917 -0.023229968
0.012975991 0.028914295 -0.022703869
0.01429759 0.029204637 -0.02209416
-0.014515221 0.030926973 -0.022140563
-0.013136324 0.030942831 -0.022587763
-0.011060608 0.032810975 -0.023409259
-0.0089942375 0.035674524 -0.023777798
-0.0066625839 0.011039728 -0.023538131
-0.0047437549 0.030811507 -0.023726016
0.0056199431 0.031195436 -0.023731858
0.0025160336 0.01497443 -0.023281984
0.0093735345 0.022246394 -0.02331909
0.009849512 0.031042432 -0.02354967
0.012883183 0.031060506 -0.022869505
0.014215931 0.031070683 -0.022123158
-0.01444912 0.032781094 -0.022192329
-0.012922682 0.032776199 -0.022562625
-0.010221198 0.033092283 -0.02341939
-0.0052202372 0.034288995 -0.023801167
-0.0029725451 0.034462791 -0.024348428
-0.0047437549 0.032912292 -0.023726016
0.0056141615 0.033187903 -0.023729324
0.0044460702 0.032697197 -0.024498146
0.0074129486 0.032500722 -0.023519959
0.0078168735 0.032658763 -0.023531849
0.01280847 0.033090204 -0.022877265
0.014287543 0.033198185 -0.022087872
-0.014366865 0.034674078 -0.022240505
-0.013007968 0.034934729 -0.022583494
-0.010786488 0.033433393 -0.023537684
-0.0042757886 0.029951025 -0.02381032
-0.0077866456 0.030961644 -0.0240127
-0.0047437549 0.035013076 -0.023726016
0.0056170225 0.035178486 -0.023730591
0.008430725 0.030823758 -0.023667894
0.01063871 0.030877514 -0.023535676
0.011470201 0.030788032 -0.023558941
0.012864652 0.035197206 -0.022847626
0.014306232 0.03514199 -0.022096753
-0.01415056 0.037002049 -0.022301942
-0.012910866 0.037110239 -0.022626132
-0.0089098876 0.034087691 -0.023483306
-0.0067655779 0.029982796 -0.023920659
0.0033256216 0.027999204 -0.024026703
-0.0047437549 0.03711386 -0.023726016
0.0056198835 0.037169002 -0.023731887
0.013633989 0.02788192 -0.023781758
0.015494196 0.030343685 -0.023647439
0.016354002 0.031090334 -0.023625672
0.012753065 0.037032813 -0.022822365
0.014302324 0.036704 -0.022092324
-0.014119297 0.038708888 -0.022318847
-0.012940277 0.039050061 -0.022650372
-0.010108543 0.036793698 -0.023368144
-0.0034846675 0.030937094 -0.023840573
0.0026425968 0.01814959 -0.024653902
-0.0047437549 0.039214645 -0.023726016
0.005622834 0.039159432 -0.023733109
0.007747829 0.038780462 -0.023244351
0.020317856 0.029285992 -0.023772037
0.01758302 0.031861302 -0.023655524
0.012798258 0.03884647 -0.022736901
0.014320424 0.038731612 -0.022084773
-0.014085433 0.040908854 -0.022312513
-0.012964088 0.041005068 -0.022584852
-0.010752536 0.039091531 -0.023389315
-0.0084735425 0.030684462 -0.023761623
0.019236207 0.0074687721 -0.02475767
-0.0047437549 0.040615167 -0.023726016
0.0056257248 0.041149788 -0.023734391
0.0077723861 0.04075671 -0.023520872
0.017913407 0.023980999 -0.024002498
0.014026723 0.032792233 -0.02368686
0.012835834 0.040990259 -0.022831265
0.014322206 0.040966317 -0.022094861
-0.014066026 0.042923667 -0.022344775
-0.013048354 0.04305407 -0.022571975
-0.0053269779 0.03790018 -0.02342617
0.006713442 0.027801953 -0.023910616
0.021291291 0.014126417 -0.024518842
-0.0047437549 0.042715952 -0.023726016
0.005628556 0.043140061 -0.023735702
0.0076642833 0.04282492 -0.02345114
0.0094963079 0.030960459 -0.023841225
0.0094038667 0.031571776 -0.023760812
0.012688921 0.043080851 -0.022689827
0.014349232 0.043274648 -0.022074878
-0.014085631 0.044959672 -0.022214875
-0.012963023 0.044945259 -0.022600643
-0.0088668885 0.040479075 -0.023368571
-0.00043456021 0.024965284 -0.023787076
0.0074684522 0.018596936 -0.024336498
-0.0047437549 0.04481674 -0.023726016
0.0056315064 0.04513026 -0.023736924
0.007596036 0.044769645 -0.023401892
0.011284036 0.028820783 -0.023660019
0.013882912 0.031640962 -0.02356991
0.013923901 0.036859285 -0.02289349
0.014328584 0.044873327 -0.022096127
-0.014174767 0.047132298 -0.022170685
-0.013013181 0.04704712 -0.022548174
-0.010478158 0.040706817 -0.023348294
-0.0078083202 0.027154729 -0.023930615
0.00096796325 -0.013076055 -0.025190299
-0.0047437549 0.04691752 -0.023726016
0.0056343973 0.047120377 -0.023738205
0.0074575348 0.046998881 -0.023496047
0.0060762418 0.025861386 -0.023807248
0.010122649 0.035286833 -0.023533614
0.011455506 0.038438488 -0.02297294
0.014326625 0.046889503 -0.022099763
-0.014273882 0.049270447 -0.022102376
-0.012969266 0.048928391 -0.022594893
-0.010244141 0.041466795 -0.023423353
-0.0046858662 0.022897208 -0.023789957
-0.0018078939 0.010406301 -0.024333462
-0.0047437549 0.049018305 -0.023726016
0.0056372881 0.049110424 -0.023739487
0.0076952381 0.049306542 -0.023489665
0.0060091857 0.026330736 -0.023586638
0.0091715585 0.033814587 -0.023491811
0.011582687 0.038035929 -0.022994552
0.014170587 0.049584135 -0.022212088
-0.014334272 0.051087048 -0.022058707
-0.013040259 0.050934497 -0.022515263
-0.010616182 0.046803989 -0.023333892
-0.0076629799 0.022758577 -0.023864353
-0.0033437263 0.020243514 -0.024152583
-0.0047437549 0.051119089 -0.023726016
0.0056401789 0.051100384 -0.023740739
0.0077832043 0.050900467 -0.023586623
0.005826314 0.021955419 -0.023912478
0.0088844877 0.03088437 -0.023608679
0.011609109 0.038071636 -0.023103576
0.014149547 0.051204905 -0.02222544
-0.014315566 0.052870616 -0.022063714
-0.012844329 0.052919719 -0.022646761
-0.0097750276 0.047714364 -0.023530072
-0.0080880672 0.042694487 -0.023924274
-0.0032067839 0.018033441 -0.024735607
-0.0047437549 0.053219873 -0.023726016
0.0056431293 0.053090278 -0.02374202
0.0077427924 0.053242803 -0.023242086
0.0073627783 0.035371948 -0.023925947
0.0090754209 0.043507062 -0.023722831
0.011230606 0.05135921 -0.02318891
0.014128387 0.05283542 -0.022238851
-0.014298975 0.054690883 -0.022076309
-0.012812626 0.054706786 -0.022690816
-0.010261865 0.052791584 -0.023455802
-0.0070631923 0.048912063 -0.023988921
-0.0054035517 0.048416741 -0.023967888
-0.0030381596 0.04584448 -0.024148216
-0.0028858865 0.050308801 -0.023573259
-0.00094419299 0.046977386 -0.023608655
0.0010048054 0.047541358 -0.023556899
0.0023051815 0.050027326 -0.023579562
0.0038764947 0.046282984 -0.023948519
0.0058423197 0.047200963 -0.023585321
0.0069318917 0.048880111 -0.023782969
0.0077538849 0.047572803 -0.023952128
0.011794063 0.051085539 -0.023021154
0.014107168 0.054475829 -0.022252381
-0.012545958 0.056199074 -0.022377998
-0.010628692 0.056198657 -0.02275355
-0.0092605548 0.056246549 -0.022957815
-0.0071360376 0.056257669 -0.023043811
-0.0049325558 0.056293037 -0.023105953
-0.0029526062 0.056271195 -0.023186587
-0.00091676152 0.05627213 -0.023016419
0.0010330672 0.056272209 -0.022986056
0.002996013 0.056263737 -0.022956671
0.0050286301 0.056277927 -0.023029549
0.0068729213 0.056271348 -0.023065411
0.0088323411 0.056279037 -0.023019983
0.010821374 0.056235582 -0.022821063
0.013298318 0.056113482 -0.022134095
-0.015164445 -0.056133907 -0.020694872
-0.012926572 -0.056215499 -0.020825977
-0.011186386 -0.056226078 -0.021083236
-0.0089770183 -0.056212727 -0.021054605
-0.0069867587 -0.056225244 -0.021154169
-0.0050202855 -0.056239717 -0.021133751
-0.002845325 -0.056207795 -0.021073774
-0.00071760645 -0.056218445 -0.020943161
0.00096665014 -0.056233577 -0.021165106
0.0029803361 -0.056207709 -0.021134255
0.0050556115 -0.056233853 -0.021189539
0.0070061088 -0.056207966 -0.021003827
0.0089601763 -0.056233168 -0.021113126
0.010689705 -0.056219563 -0.020985523
0.012720805 -0.056209102 -0.020909445
0.01473913 -0.056119815 -0.020657979
-0.01646927 -0.0545641 -0.020405544
-0.014908579 -0.054844432 -0.02106696
-0.013057723 -0.054977331 -0.020939149
-0.011283885 -0.055123925 -0.021002093
-0.0088038575 -0.055066954 -0.021124611
-0.0067961453 -0.055245459 -0.021124212
-0.0050793379 -0.055259541 -0.020903667
-0.0028772831 -0.055105995 -0.020896763
-0.0012404621 -0.055198681 -0.020702846
0.00061153516 -0.055164993 -0.020985415
0.003214766 -0.055262867 -0.02116554
0.0052719042 -0.054967105 -0.021233268
0.0070013604 -0.055197738 -0.020977547
0.0089958496 -0.055139527 -0.020735253
0.01067641 -0.055161066 -0.020925904
0.01290872 -0.055005349 -0.021081859
0.014960221 -0.054568358 -0.02103295
0.016395051 -0.054565724 -0.020373404
-0.016501445 -0.052905556 -0.020424878
-0.014881987 -0.052967925 -0.021250505
-0.013033698 -0.053192042 -0.02132841
0.01153256 -0.053173438 -0.021638215
0.013461043 -0.053005762 -0.02124092
0.014870898 -0.052975435 -0.02108464
0.016563239 -0.05284442 -0.02048317
-0.016458368 -0.050980158 -0.020425851
-0.015037974 -0.051088601 -0.021215361
-0.013298519 -0.050977971 -0.021025985
-0.011694442 -0.050635826 -0.021742871
0.011141887 -0.051125377 -0.021870881
0.013334337 -0.050829139 -0.021249693
0.01495048 -0.051069327 -0.021069134
0.016574949 -0.050982643 -0.020443371
-0.016505782 -0.048960567 -0.020425133
-0.014906108 -0.049116913 -0.021251
-0.013398961 -0.049015317 -0.020792169
-0.011571805 -0.048965584 -0.02174012
0.01111114 -0.049270414 -0.02193588
0.013292835 -0.048796944 -0.02140112
0.015017287 -0.048953544 -0.021002712
0.016591245 -0.048867911 -0.020569883
-0.016499711 -0.046871681 -0.020490255
-0.014839001 -0.04711289 -0.021025563
-0.013326271 -0.046998978 -0.021118235
-0.011665156 -0.046794336 -0.021688323
0.01111263 -0.047325026 -0.02193661
0.013184157 -0.046957176 -0.021251071
0.014971043 -0.046815831 -0.020915745
0.016650051 -0.046676569 -0.020519078
-0.016628964 -0.044803727 -0.020410627
-0.014929858 -0.045145668 -0.021054314
-0.013156911 -0.044753324 -0.02127042
-0.011762093 -0.044603776 -0.021634579
0.011311671 -0.044942297 -0.021774542
0.01323675 -0.04486816 -0.021233508
0.014884681 -0.045007478 -0.021027301
0.016491205 -0.044925418 -0.020549556
-0.016455276 -0.042862792 -0.020469619
-0.014917133 -0.042946152 -0.021329442
-0.013150454 -0.042782743 -0.02125941
0.011015207 -0.042817511 -0.021905124
0.013392323 -0.042758986 -0.021274254
0.01495085 -0.043031916 -0.021038769
0.016577598 -0.043031849 -0.020516019
-0.016468907 -0.040941972 -0.020466542
-0.014912156 -0.041104443 -0.021310242
-0.013271367 -0.040936764 -0.021068549
-0.011376572 -0.041451201 -0.021713123
0.011116266 -0.04084111 -0.021938294
0.013293426 -0.040780772 -0.021437071
0.014935981 -0.04089845 -0.021078326
0.016582884 -0.040956259 -0.020488914
-0.016676828 -0.03892095 -0.020373994
-0.015076889 -0.039091609 -0.021212375
-0.013287852 -0.038972195 -0.021140952
-0.011248897 -0.039559573 -0.021913311
0.011117816 -0.038895879 -0.02193898
0.013185426 -0.039090019 -0.021299245
0.014894126 -0.038782552 -0.021094015
0.016544079 -0.038786866 -0.020506352
-0.016558301 -0.036877383 -0.020444369
-0.01512018 -0.036989443 -0.02115918
-0.013191666 -0.037002977 -0.021253277
-0.011496671 -0.037189122 -0.021886647
0.011223863 -0.036844708 -0.021815678
0.013250477 -0.036918011 -0.021435939
0.014944339 -0.037036516 -0.021124456
0.016468909 -0.036948733 -0.020564761
-0.016761739 -0.034849446 -0.020327685
-0.014945068 -0.034959827 -0.021123808
-0.01288155 -0.034893699 -0.021263555
-0.011757696 -0.03464736 -0.021691591
0.011119604 -0.035005849 -0.021939874
0.013368372 -0.03513639 -0.021221125
0.014953135 -0.035159361 -0.021082286
0.016574476 -0.035336398 -0.020522617
-0.016799565 -0.032757092 -0.020310614
-0.014980897 -0.033148948 -0.02122476
-0.013017934 -0.033020411 -0.021198574
-0.011931339 -0.032810956 -0.021594405
0.011121124 -0.03306073 -0.021940559
0.013201075 -0.032960422 -0.021257101
0.014945639 -0.033086617 -0.021203248
0.016427236 -0.033021297 -0.020445429
-0.016760349 -0.031005323 -0.02028477
-0.015193733 -0.031068584 -0.021169236
-0.013104563 -0.03116459 -0.021079957
-0.011863713 -0.030766241 -0.021678388
0.011122048 -0.031115782 -0.021941006
0.013241237 -0.030892396 -0.021382071
0.014905232 -0.031072132 -0.021032512
0.016457835 -0.030992594 -0.020514386
-0.016624441 -0.02928794 -0.020256605
-0.015089803 -0.028896892 -0.021164292
-0.01342865 -0.029275594 -0.021042002
-0.011810223 -0.028656363 -0.021497309
0.011413684 -0.029422056 -0.021707784
0.013254734 -0.02896069 -0.021186335
0.014945681 -0.028837936 -0.021015713
0.016407778 -0.029128985 -0.020525403
-0.016663989 -0.026943164 -0.02025675
-0.015084977 -0.026806703 -0.021070588
-0.013298331 -0.026882486 -0.021080445
-0.011458238 -0.026597306 -0.021814749
0.011131003 -0.027027395 -0.021820992
0.013313076 -0.02702719 -0.021276284
0.014877909 -0.026900215 -0.021037262
0.016506605 -0.027082024 -0.020541573
-0.016778901 -0.024954123 -0.020267595
-0.015107476 -0.0248702 -0.021311799
-0.013491199 -0.024914149 -0.021242343
-0.01147612 -0.024848541 -0.021784764
0.011125594 -0.02528093 -0.02194269
0.013292223 -0.02516716 -0.021133186
0.015064606 -0.024837885 -0.02107214
0.016554479 -0.024883119 -0.020615399
-0.01675437 -0.023089385 -0.020293217
-0.015012302 -0.023067588 -0.021093789
-0.013267976 -0.023098698 -0.021341614
-0.011507386 -0.022910789 -0.021743089
0.011127174 -0.022687774 -0.021943405
0.013419186 -0.022960965 -0.021307878
0.015044379 -0.022815485 -0.02107824
0.01652332 -0.022943249 -0.020658981
-0.016628964 -0.021033648 -0.020387866
-0.015105803 -0.021238992 -0.02110073
-0.013242495 -0.021418611 -0.021315252
-0.011622837 -0.020930748 -0.021702886
0.011128068 -0.020742975 -0.021943808
0.013453275 -0.02106189 -0.021291431
0.015058783 -0.020988204 -0.021067768
0.016538683 -0.021114334 -0.020629188
-0.016544444 -0.019168884 -0.020451481
-0.015030622 -0.018960368 -0.021128977
-0.013210396 -0.019182852 -0.021057704
-0.011552731 -0.019030184 -0.021718472
0.01132686 -0.018957444 -0.021748304
0.013372953 -0.018742649 -0.021254629
0.015033968 -0.018900314 -0.021048063
0.016484346 -0.018978775 -0.020605292
-0.016590698 -0.017064855 -0.020406689
-0.015008183 -0.017002331 -0.021234069
-0.013048915 -0.017028481 -0.020973688
-0.011422907 -0.016810432 -0.021977097
0.011130571 -0.016853381 -0.021945
0.013409796 -0.017265646 -0.021200964
0.015039354 -0.016933838 -0.021191588
0.016773039 -0.01675408 -0.020562803
0.019259244 -0.016343698 -0.020553377
0.020948937 -0.016364913 -0.020398086
0.022972202 -0.016483735 -0.020489281
0.025060823 -0.016652055 -0.020414403
0.026940105 -0.016487088 -0.020435726
0.028828943 -0.016312845 -0.020403732
0.030827645 -0.016499406 -0.020397373
0.033093829 -0.016549679 -0.020347711
0.035108894 -0.016498385 -0.020402513
0.037004285 -0.016425371 -0.020409895
0.038864117 -0.016356722 -0.02057231
0.040710971 -0.016542414 -0.020412914
0.042958301 -0.016496159 -0.020456672
0.045021065 -0.016431836 -0.020298412
0.046864633 -0.016478442 -0.020404108
0.049059838 -0.016510576 -0.020513192
0.050982572 -0.016473778 -0.02046727
0.053175665 -0.016299898 -0.020504156
0.054599084 -0.016239975 -0.020251565
-0.016555976 -0.014946613 -0.020366965
-0.014973192 -0.01512688 -0.021201227
-0.013049277 -0.015026629 -0.021046275
0.011021813 -0.015182413 -0.021913251
0.013260382 -0.01508591 -0.021343248
0.015079304 -0.015047582 -0.021178326
0.016963525 -0.015008827 -0.021039672
0.018802276 -0.014903448 -0.020941015
0.020872612 -0.014913699 -0.021287804
0.022946745 -0.014840259 -0.021071032
0.024970047 -0.015155957 -0.020880498
0.027081927 -0.014879322 -0.021143766
0.028926035 -0.0149063 -0.021148544
0.030977994 -0.014927899 -0.021097884
0.032973811 -0.015000969 -0.021021662
0.035057202 -0.01506616 -0.020997891
0.037009768 -0.015017116 -0.021011708
0.039147004 -0.014902355 -0.021006869
0.041069917 -0.014961163 -0.02101621
0.042970892 -0.014971905 -0.020957742
0.045011424 -0.015094289 -0.020923246
0.046832368 -0.014929869 -0.021041693
0.04891501 -0.015005526 -0.020999128
0.051010098 -0.015009937 -0.020964211
0.052952025 -0.014809224 -0.021128744
0.054927994 -0.014778216 -0.021011613
0.056220405 -0.014934148 -0.020748353
-0.016564125 -0.013064387 -0.020377513
-0.014895934 -0.012909179 -0.021280259
-0.013143775 -0.013126311 -0.021135841
-0.011242593 -0.012863934 -0.021947563
0.011132896 -0.012963919 -0.021946102
0.013233432 -0.012804146 -0.021656096
0.014960329 -0.013033264 -0.021119334
0.016795367 -0.012978709 -0.021397464
0.019169241 -0.013311652 -0.021335592
0.020936197 -0.013102916 -0.021053392
0.022663642 -0.012843499 -0.021438261
0.025058376 -0.01303174 -0.021343315
0.027046904 -0.012995702 -0.021464963
0.028895279 -0.012812555 -0.021460479
0.031021973 -0.012889388 -0.021255929
0.033161432 -0.013071786 -0.021305416
0.035037704 -0.013186926 -0.021344844
0.037023377 -0.013166311 -0.021323906
0.039021764 -0.01292625 -0.021308813
0.041160949 -0.012994653 -0.021366591
0.042923823 -0.012892004 -0.021495381
0.045021575 -0.013166822 -0.021258419
0.04689109 -0.013032476 -0.021143293
0.048991118 -0.013018792 -0.021364775
0.051102068 -0.013040739 -0.02118396
0.053124633 -0.013042949 -0.021296272
0.055118453 -0.012971113 -0.021377817
0.056328751 -0.01282796 -0.020891918
-0.01654868 -0.011216147 -0.020460108
-0.014938165 -0.010833134 -0.021173175
-0.013081107 -0.01098596 -0.021094739
-0.011655385 -0.010889813 -0.021663547
0.011133492 -0.011667478 -0.0219464
0.013100505 -0.011561843 -0.021458626
0.016265035 -0.011356303 -0.021582037
0.019112369 -0.010839264 -0.021797687
0.021514535 -0.011143088 -0.021605104
0.022705629 -0.011199356 -0.021632701
0.024933591 -0.011249587 -0.021611556
0.026417583 -0.011953689 -0.02122657
0.029216647 -0.011712276 -0.021424472
0.031844199 -0.01152219 -0.021537423
0.033849746 -0.010462224 -0.021995366
0.034863517 -0.011049182 -0.021743819
0.036826193 -0.011099692 -0.02172175
0.039046239 -0.011290098 -0.021599304
0.041308761 -0.01133218 -0.021604672
0.042714298 -0.011838676 -0.021393627
0.044931889 -0.011661727 -0.021498978
0.047084212 -0.011489988 -0.02160126
0.049228266 -0.011001885 -0.021805614
0.051216822 -0.011107154 -0.021730155
0.053154916 -0.011242461 -0.021687821
0.055128422 -0.011012129 -0.021065339
0.056385279 -0.011064337 -0.020885222
-0.01661149 -0.009092913 -0.020360328
-0.014890605 -0.0091190347 -0.021273339
-0.013021216 -0.0088040438 -0.021110436
-0.011649752 -0.0092955679 -0.021666825
0.055202544 -0.0092045628 -0.020957779
0.056369621 -0.0089733722 -0.021159401
-0.016456595 -0.0069642565 -0.020414069
-0.014970168 -0.0070520588 -0.021238595
-0.013332076 -0.0071736742 -0.021240823
-0.011735344 -0.0069862083 -0.021687355
0.055399988 -0.0069838492 -0.020948993
0.056420475 -0.0067486349 -0.021097317
-0.016563978 -0.0051604831 -0.020443566
-0.01492509 -0.0050581982 -0.021161625
-0.013260423 -0.0049873651 -0.021031236
-0.011642003 -0.0045228899 -0.021672308
0.055492591 -0.0052524335 -0.021131361
0.056355715 -0.0048039001 -0.020926487
-0.016635936 -0.0030455743 -0.020406693
-0.015036308 -0.0028886257 -0.021097388
-0.01332864 -0.0028713248 -0.02120069
-0.011291486 -0.0029887855 -0.021914035
0.055393856 -0.0030083815 -0.020808117
0.056348342 -0.0028492517 -0.021084582
-0.016557043 -0.0010904628 -0.020458717
-0.015201701 -0.00098746864 -0.021146972
-0.01312485 -0.0009600888 -0.02119296
-0.011092672 -0.0011324883 -0.021930933
0.055255752 -0.0012623997 -0.02106479
0.05634708 -0.00095730845 -0.021075938
-0.016545249 0.00088440377 -0.020431735
-0.015008003 0.00085052906 -0.02121811
-0.01315349 0.00073209364 -0.021147531
0.055233017 0.00087800383 -0.020955553
0.056357559 0.00074006192 -0.021077758
-0.016629525 0.0030175433 -0.020409239
-0.01500485 0.002876308 -0.021062657
-0.013694089 0.0027493136 -0.021160053
-0.011411098 0.0027227253 -0.021850586
0.05535372 0.0029003837 -0.020911008
0.056353699 0.0029284407 -0.021084838
-0.016564384 0.0051370566 -0.020443866
-0.014860379 0.0050060428 -0.021203743
-0.0047858795 -0.00018939577 -0.02127286
-0.012578927 -0.00019266861 -0.02161785
0.055505831 0.0051768739 -0.021124726
0.056371767 0.0048490665 -0.021072872
-0.016461592 0.0069006393 -0.020426659
-0.014945511 0.0070309406 -0.02124439
-0.013718421 0.002371741 -0.020964326
0.0052651661 -0.0048433333 -0.021257652
0.055421978 0.0069417246 -0.020819847
0.056420725 0.0067299036 -0.021097392
-0.016611712 0.0090024294 -0.020366164
-0.014952684 0.00914237 -0.021359397
-0.013792167 -0.0014354266 -0.021003297
0.0023799492 -0.017807914 -0.021101605
0.055177439 0.0092427237 -0.02094836
0.056371983 0.0087632369 -0.021178199
-0.016564637 0.011078938 -0.020449126
-0.014750206 0.01293064 -0.02133604
-0.011151354 0.0079338672 -0.021263778
-0.0044433745 -0.022593837 -0.021355659
0.011087477 0.011671239 -0.021924794
0.013364732 0.011540122 -0.021585137
0.016490459 0.011337682 -0.021692276
0.019196641 0.010869309 -0.021823406
0.021621197 0.011325657 -0.021575302
0.022847295 0.011303397 -0.021654621
0.025058419 0.011354373 -0.021626502
0.02675128 0.011885318 -0.021440327
0.029450893 0.011690246 -0.021551162
0.032970995 0.011011324 -0.021821976
0.034999624 0.011109191 -0.021790117
0.036963016 0.011177455 -0.021762595
0.039161038 0.011405571 -0.021614622
0.042890668 0.011819872 -0.021500677
0.045095444 0.011644205 -0.021600097
0.047235608 0.011473684 -0.021696538
0.049322754 0.011059439 -0.021839887
0.051290683 0.011187341 -0.02174454
0.053234905 0.011294061 -0.021718174
0.055156905 0.01117792 -0.021008447
0.056387659 0.010974889 -0.020869
-0.016716352 0.013005261 -0.020293709
-0.015029754 0.012941787 -0.021236258
-0.0055626188 0.019167451 -0.021908225
-0.0017678611 0.030930117 -0.022600358
0.011089325 0.012967878 -0.021925688
0.0077702976 0.016106134 -0.022268357
0.01155724 0.019245233 -0.021806058
0.010762407 0.021801202 -0.021851597
0.016164219 0.021279974 -0.0219074
0.017193478 0.017646439 -0.021756303
0.015162717 0.020555977 -0.022300214
0.012740132 0.023842758 -0.022173423
0.020110212 0.016075348 -0.022032715
0.019111324 0.02088337 -0.021920038
0.017433604 0.02339354 -0.021853153
0.025091035 0.021417856 -0.021926103
0.029029902 0.016759565 -0.02181327
0.02634093 0.020197256 -0.022145735
0.021190463 0.022936402 -0.022230484
0.034236159 0.014897328 -0.021795034
0.031905845 0.018847998 -0.02203829
0.027937256 0.021132421 -0.021834254
0.040003344 0.015791837 -0.02146161
0.033765089 0.020691305 -0.022095591
0.03711538 0.01742778 -0.021945024
0.040767122 0.018322634 -0.021969315
0.037219312 0.017580917 -0.02190337
0.056319065 0.012793934 -0.020882674
-0.016615842 0.014956044 -0.020410616
-0.015014759 0.015005822 -0.021145085
-0.011768413 0.017360205 -0.021853417
-0.0021883678 -0.017752957 -0.023687225
0.01083232 0.014948759 -0.021941176
0.016747698 0.014147136 -0.021655791
0.015501644 0.015598794 -0.021462912
0.014835455 0.015412265 -0.021455577
0.014319872 0.016053708 -0.021467855
0.018500088 0.015756495 -0.021370588
0.020250048 0.015992006 -0.021303024
0.023809098 0.015876047 -0.021220835
0.026461072 0.015035704 -0.021318952
0.02740358 0.015308093 -0.02141379
0.027581021 0.015173743 -0.021407502
0.028069625 0.015526875 -0.021341959
0.031902678 0.015530172 -0.02126237
0.03355924 0.015776357 -0.021213856
0.036082044 0.015543976 -0.021269219
0.038565617 0.015092968 -0.021164514
0.039804637 0.015363161 -0.021251312
0.040230148 0.015300118 -0.02130295
0.043980699 0.015114536 -0.021243677
0.042936634 0.01560987 -0.021301812
0.046309598 0.015612207 -0.021116242
0.051004753 0.015081593 -0.021110242
0.050716605 0.015186705 -0.021235274
0.056204103 0.014921079 -0.020738259
-0.016600808 0.017035676 -0.020410124
-0.015062467 0.016917033 -0.02119696
-0.0060151787 0.01589058 -0.021511987
-0.011923194 0.0161421 -0.021925569
0.011094153 0.016857669 -0.021927893
0.019544873 0.016034409 -0.021648264
0.016434751 0.016663726 -0.021415967
0.016706908 0.016690988 -0.020600831
0.019326575 0.016294325 -0.020570833
0.020941658 0.016506489 -0.020475695
0.022908555 0.016461134 -0.020476747
0.025211364 0.016476536 -0.020533402
0.026946232 0.01645332 -0.020455608
0.028819626 0.016321067 -0.020463187
0.03088527 0.016654355 -0.02038317
0.033296749 0.016550589 -0.020405263
0.035084836 0.016502924 -0.020459741
0.036994301 0.016427498 -0.020473357
0.039046559 0.01635501 -0.020530529
0.040663898 0.016551111 -0.020470841
0.042926561 0.01649606 -0.020521067
0.04501155 0.016438758 -0.020360654
0.046822358 0.016486816 -0.020462278
0.04913396 0.016524253 -0.020595355
0.051134832 0.016456209 -0.020478731
0.053145275 0.016302984 -0.020553056
0.05465759 0.016500425 -0.020211875
-0.016533427 0.019139448 -0.020443862
-0.015022743 0.018892769 -0.021131495
-0.0028007433 0.015695343 -0.021874784
-0.011094371 0.019181341 -0.021990299
0.011264076 0.018902162 -0.021747997
0.017587204 0.014327458 -0.022143453
0.015127442 0.017322812 -0.021429945
0.01642579 0.018881958 -0.020613451
-0.016641699 0.02113184 -0.02036313
-0.015013881 0.021244491 -0.021188134
-0.0065134871 0.01616827 -0.02185446
0.0093880221 0.0071581393 -0.023165112
0.011099041 0.020747196 -0.021930188
0.022518164 0.013278343 -0.021809801
0.016269989 0.019498868 -0.021287309
0.01651755 0.021103945 -0.020588022
-0.016738912 0.023064289 -0.020348817
-0.012238827 0.020781765 -0.021228451
-0.0030221478 0.013404431 -0.021817243
0.0037118271 0.0069156815 -0.022605013
0.011101156 0.022691905 -0.021931201
0.020361353 0.01401447 -0.021615442
0.018840954 0.017376047 -0.021365611
0.016515348 0.022937682 -0.020626962
-0.016667558 0.024891099 -0.02036982
-0.015142636 0.025055077 -0.021160061
-0.0068692807 0.0047519202 -0.02233487
0.0022724892 -0.0023365864 -0.022724723
0.011104465 0.025284678 -0.021932781
0.015077369 0.012716954 -0.021627646
0.014704702 0.022163225 -0.021113804
0.016529873 0.024873784 -0.020568093
-0.016762026 0.026869912 -0.020275783
-0.015117356 0.026866278 -0.0210658
-0.0054268818 -0.00052156858 -0.021896148
-0.012318887 -0.0011724876 -0.022142824
0.011012807 0.026883395 -0.02184391
0.0072825151 -0.00044075775 -0.022015341
0.013502825 0.020712988 -0.021271734
0.016483573 0.027253186 -0.020500986
-0.016619202 0.029214829 -0.020255679
-0.015029116 0.028927488 -0.02110038
-0.0082589621 0.015401135 -0.022198828
-0.0018813126 -0.021182366 -0.022875404
0.011321217 0.029315388 -0.021723639
0.0097415168 0.0089013875 -0.021530766
0.013396866 0.024127845 -0.021334579
0.016425623 0.029247858 -0.020512518
-0.016768407 0.03121699 -0.02025873
-0.015143463 0.031058615 -0.021198303
-0.010757739 0.037283298 -0.022491362
-0.011937359 0.030510545 -0.021515489
0.011111677 0.031118024 -0.021936208
0.0075729499 0.032291364 -0.022860983
0.013516668 0.03167871 -0.021206917
0.01643814 0.030964686 -0.020459646
-0.016749388 0.033014469 -0.02021401
-0.014978005 0.033157334 -0.021227291
-0.008662709 0.031836715 -0.022096001
-0.0057516722 0.032959335 -0.022905126
0.01111418 0.033062335 -0.021937326
0.011687361 0.031222131 -0.02208182
0.013547833 0.031884149 -0.021641148
0.016412791 0.033113021 -0.020474022
-0.016656503 0.034803681 -0.020378878
-0.013619394 0.033629537 -0.021439714
-0.011896919 0.032095544 -0.02180279
-0.00405226 0.01807753 -0.025186557
0.011116564 0.03500659 -0.021938413
0.012853395 0.02969522 -0.022076173
0.014895666 0.033773884 -0.021252653
0.016521625 0.035305642 -0.020457601
-0.01655348 0.036849201 -0.020444309
-0.01506993 0.036967736 -0.021081224
-0.003361068 0.027737433 -0.022524538
0.005334524 0.016914621 -0.02406453
0.01115483 0.036759954 -0.021832865
0.021199519 0.027282091 -0.022436725
0.017627027 0.033012114 -0.021633625
0.01645156 0.037043154 -0.020501129
-0.016669478 0.038897134 -0.020368561
-0.015050929 0.039046947 -0.021197328
-0.0036104701 0.024141831 -0.02288135
0.0016738363 0.014654013 -0.024081973
0.011536494 0.038954049 -0.021573633
0.019837363 0.02615945 -0.022588937
0.016535845 0.034775596 -0.021615982
0.016558548 0.038873658 -0.020562036
-0.016547974 0.040952556 -0.020459507
-0.014958991 0.040991608 -0.02129058
-0.00097928324 0.022311918 -0.022894522
-0.010262188 0.030319981 -0.022716772
0.011123806 0.040838942 -0.021941885
0.014215342 0.032314982 -0.022069192
0.014395706 0.036160834 -0.02159656
0.016590532 0.04101922 -0.020519666
-0.016437218 0.04282539 -0.020457938
-0.014906183 0.042916656 -0.021310683
0.0063029211 0.026367493 -0.022544695
-0.011407027 0.043963253 -0.02178973
0.010936275 0.04271926 -0.021928668
0.0089623025 0.026694236 -0.022548515
0.013728909 0.040448662 -0.021314597
0.016577791 0.043164067 -0.020551164
-0.016551916 0.044727627 -0.020456446
-0.014096293 0.042618133 -0.02124327
-0.0031806431 0.029125364 -0.022246037
0.020056363 -0.0095210038 -0.024448546
0.011232386 0.044842552 -0.021799218
0.014890181 0.026093319 -0.022064656
0.016217485 0.039196461 -0.021394992
0.016527941 0.045081038 -0.020618904
-0.016433295 0.046762262 -0.020545233
-0.014270633 0.043279339 -0.021352073
-0.0096599981 0.027683543 -0.022433387
-0.0052752364 0.0021188359 -0.023942707
0.011115998 0.047323935 -0.021938175
0.010089308 0.032672584 -0.021801082
0.01237183 0.037809357 -0.021503162
0.016632244 0.046671152 -0.020489573
-0.016440202 0.048969168 -0.020471334
-0.014905677 0.049104016 -0.021244712
-0.0036347404 0.0016437195 -0.023112191
-0.0033205841 -0.0065341778 -0.023910001
0.011109352 0.04927104 -0.021935046
0.010409382 0.029668795 -0.022202143
0.012674424 0.037342422 -0.021630175
0.016582286 0.048860334 -0.02055309
-0.016503155 0.050829925 -0.02043199
-0.01496957 0.051114127 -0.021256184
-0.0070528029 0.014826345 -0.022499096
-0.0033726399 -0.015181216 -0.023847593
0.01106289 0.051046796 -0.021887988
0.011316623 0.033674672 -0.021939479
0.012342132 0.035217084 -0.021792963
0.016363582 0.051007491 -0.020718738
-0.016490651 0.052878257 -0.020406954
-0.014852819 0.053049959 -0.021277586
-0.0098817376 0.051173422 -0.022805182
0.0041848598 0.05315873 -0.026110634
0.01142621 0.05306451 -0.021663457
0.011685663 0.050143383 -0.022088891
0.012664855 0.050662398 -0.021958932
0.016307611 0.05276724 -0.020626318
-0.016558012 0.054676715 -0.020292956
-0.015126902 0.054925844 -0.021123827
-0.010531914 0.050665326 -0.02170668
-0.011201604 0.055420496 -0.021045063
-0.008786805 0.055219777 -0.020984907
-0.006865859 0.055218451 -0.021138748
-0.0052016377 0.055285372 -0.021143353
-0.002947601 0.055301659 -0.02107475
-0.00093761832 0.05503343 -0.020650595
0.0007712075 0.055247236 -0.021013208
0.0030917069 0.055322602 -0.021047361
0.0050324798 0.055185344 -0.021272644
0.0071780849 0.055283163 -0.020913431
0.0091141127 0.055141304 -0.020794937
0.010861988 0.055062979 -0.020949457
0.012244053 0.052638583 -0.021479812
0.012728339 0.049408946 -0.021834886
0.016377268 0.054604925 -0.02073586
-0.015171444 0.056153756 -0.020710241
-0.012899987 0.056229472 -0.020715266
-0.011071665 0.056258556 -0.021076726
-0.0089767668 0.056266855 -0.02118551
-0.0069779372 0.056277562 -0.021142343
-0.0050128466 0.056287799 -0.021131188
-0.0027964006 0.056259736 -0.0211269
-0.00070963748 0.056272201 -0.020935902
0.00099780958 0.056290288 -0.021266973
0.0030387358 0.056272574 -0.021006025
0.0049948851 0.056290518 -0.021294257
0.007058233 0.056260403 -0.021057755
0.0090402607 0.056277726 -0.021026572
0.010742721 0.056276675 -0.021063643
0.012772179 0.05629763 -0.021020506
0.014416104 0.056201242 -0.020795286
-0.016495027 -0.056175459 -0.018867422
-0.014806762 -0.056219108 -0.019084975
-0.01289563 -0.056225415 -0.019078901
-0.011081705 -0.056218542 -0.019148095
-0.0090099536 -0.056207735 -0.019168094
-0.0069939625 -0.056218665 -0.019135706
-0.0049935356 -0.056263249 -0.019185467
-0.0028597345 -0.05620724 -0.0191034
-0.00074879313 -0.056225266 -0.018994287
0.0010868243 -0.056233317 -0.019322254
0.0029654396 -0.056207504 -0.019044131
0.0048949835 -0.056225646 -0.019256923
0.0069559896 -0.056207515 -0.019030912
0.009049098 -0.056218673 -0.019076787
0.010971924 -0.056218676 -0.019076783
0.013001272 -0.056254216 -0.01905614
0.01494348 -0.056161743 -0.01902822
0.016958382 -0.05613108 -0.018926665
0.018171072 -0.056131423 -0.018357605
-0.018442612 -0.054712646 -0.018547019
-0.017052911 -0.054740638 -0.018914845
-0.015039841 -0.05489701 -0.019043203
-0.012970353 -0.055272631 -0.018766662
-0.011306386 -0.055098679 -0.019074043
-0.0088800937 -0.054955471 -0.019090978
-0.0069287256 -0.055175215 -0.019094644
-0.0050369725 -0.055142842 -0.019022156
-0.0029894875 -0.055061147 -0.01884016
-0.00096108485 -0.055039115 -0.019028176
0.0011189559 -0.05517346 -0.018894874
0.003077413 -0.055057388 -0.0192101
0.0050316988 -0.055132262 -0.019140758
0.0070097656 -0.05511792 -0.019070704
0.0089307381 -0.055027641 -0.018814413
0.010819289 -0.055030216 -0.018925965
0.012919144 -0.055109184 -0.018980861
0.014985562 -0.054963868 -0.018869484
0.016760774 -0.054806013 -0.019109897
0.018473899 -0.05477678 -0.018475879
-0.018492853 -0.052958243 -0.018553331
-0.0171459 -0.053043395 -0.019331302
-0.015257888 -0.053026386 -0.019620474
0.015148034 -0.052884813 -0.019417545
0.016920252 -0.053013701 -0.019298328
0.018460188 -0.053067904 -0.018586749
-0.018458705 -0.051078212 -0.018661804
-0.017123545 -0.05113269 -0.019163195
-0.015344141 -0.051030926 -0.019319549
0.015007153 -0.050865702 -0.019488424
0.017036015 -0.050923508 -0.019089803
0.018503111 -0.050979134 -0.018662605
-0.018507693 -0.048929434 -0.018672474
-0.017016828 -0.049137995 -0.019150304
-0.015233499 -0.04906458 -0.019622743
0.014883946 -0.049029183 -0.019614428
0.01693842 -0.048938248 -0.019139895
0.018480591 -0.049006641 -0.018749814
-0.018494347 -0.047005236 -0.018665755
-0.017116494 -0.046947904 -0.019080916
-0.015164847 -0.046907559 -0.019585054
0.015502731 -0.046505731 -0.019348482
0.017079828 -0.047035392 -0.019136749
0.018476129 -0.046993505 -0.01871047
-0.018503156 -0.04514664 -0.018587084
-0.017121535 -0.044999592 -0.019132849
-0.015130987 -0.044770107 -0.019613361
0.015485142 -0.044705786 -0.019565988
0.017101543 -0.045010477 -0.019068409
0.018596327 -0.044908535 -0.018703749
-0.018521674 -0.043117426 -0.018508781
-0.017109226 -0.043001655 -0.019183492
-0.015061396 -0.04282406 -0.019533679
0.015263284 -0.042787351 -0.019675514
0.017074822 -0.043036263 -0.019100701
0.018515542 -0.043111011 -0.018808778
-0.018607644 -0.040960245 -0.018508278
-0.017353563 -0.040977579 -0.0190803
-0.015402408 -0.041101601 -0.01937167
0.014795512 -0.040682428 -0.019639552
0.017123109 -0.040924832 -0.019149709
0.018499093 -0.040933598 -0.018767454
-0.018731173 -0.038786843 -0.018451368
-0.017095692 -0.03906782 -0.019120382
-0.015180282 -0.039245125 -0.019548727
0.01550008 -0.038964406 -0.019617271
0.017120859 -0.038926288 -0.019073857
0.018573459 -0.038854942 -0.018726716
-0.018589381 -0.036841501 -0.018530102
-0.017126355 -0.037039556 -0.019079743
-0.015150613 -0.037127897 -0.019547641
0.015483568 -0.037031904 -0.019613713
0.017266475 -0.036822431 -0.019064883
0.018637473 -0.037129812 -0.018547744
-0.018521724 -0.034952931 -0.018570801
-0.017268041 -0.034948871 -0.019171815
-0.015296634 -0.034946002 -0.019481197
0.015452857 -0.035290197 -0.019783927
0.016938034 -0.034904074 -0.019203339
0.018611692 -0.035073604 -0.018660147
-0.018550817 -0.033111956 -0.01848381
-0.017042961 -0.033144258 -0.019253533
-0.015109933 -0.032958161 -0.019612363
0.015497524 -0.033067953 -0.019769456
0.017183995 -0.03290439 -0.019227054
0.018476831 -0.032986056 -0.018626653
-0.01852737 -0.031141406 -0.018602932
-0.017087933 -0.031165969 -0.019119458
-0.015399675 -0.030928863 -0.019381028
0.015213678 -0.030979311 -0.019740701
0.017108357 -0.031051148 -0.019053163
0.018605014 -0.030925686 -0.018559443
-0.018589715 -0.028982159 -0.018564949
-0.017044509 -0.029013583 -0.019080631
-0.015096748 -0.028818145 -0.019662917
0.015545513 -0.028817547 -0.019588372
0.017077774 -0.029069632 -0.019182393
0.018496668 -0.028929742 -0.018499848
-0.018535191 -0.026989337 -0.018589472
-0.017067794 -0.026972298 -0.019024942
-0.015070292 -0.02659894 -0.019726122
0.015448866 -0.02670888 -0.019390043
0.017130747 -0.027123088 -0.019298898
0.018569702 -0.026973939 -0.01847562
-0.018619349 -0.024930052 -0.01855658
-0.017139709 -0.025130134 -0.0189548
-0.015355635 -0.024773322 -0.019434661
0.015356019 -0.024939192 -0.019662485
0.017152848 -0.025010323 -0.019186612
0.018548381 -0.025159599 -0.018495081
-0.018554531 -0.022933468 -0.018532677
-0.01701038 -0.023043709 -0.019182134
-0.015311598 -0.022834996 -0.019459128
0.015309381 -0.023335494 -0.019569825
0.017388884 -0.02307542 -0.019218449
0.018633462 -0.023052638 -0.01853063
-0.018488664 -0.02089072 -0.018586844
-0.017193209 -0.020920724 -0.019132867
-0.015127154 -0.020827942 -0.019567212
0.015298811 -0.021089824 -0.019672424
0.017185608 -0.021103291 -0.019192457
0.01881109 -0.021020159 -0.018521955
-0.018526977 -0.018915394 -0.018591315
-0.017082879 -0.018974589 -0.019168414
-0.015301237 -0.019132392 -0.019417424
0.015488803 -0.018991904 -0.019095957
0.017278433 -0.019084493 -0.019244667
0.018887842 -0.018790243 -0.018638534
0.020900311 -0.018363887 -0.018652985
0.022849701 -0.018696567 -0.018460929
0.024980742 -0.018639425 -0.018548686
0.027000744 -0.018517837 -0.018766172
0.02900085 -0.018510908 -0.018513281
0.030954143 -0.01869129 -0.01848799
0.033025559 -0.018650839 -0.018538147
0.034989782 -0.018562136 -0.01874521
0.037181951 -0.018672004 -0.018460177
0.039060175 -0.018605424 -0.018285735
0.040779535 -0.01854565 -0.018631749
0.043194946 -0.018628275 -0.018592974
0.045278341 -0.018361 -0.01870889
0.046969302 -0.018495828 -0.018593682
0.048918005 -0.01870561 -0.018380839
0.050899368 -0.018541163 -0.018589851
0.053015817 -0.018523321 -0.018427992
0.054618765 -0.018361887 -0.018695569
0.056083381 -0.018403351 -0.018117428
-0.018474784 -0.017036103 -0.018736461
-0.017136937 -0.016830703 -0.019188467
-0.015066996 -0.016858455 -0.019562073
0.015051067 -0.017268112 -0.019572258
0.017102284 -0.01709157 -0.01929719
0.01907355 -0.017024925 -0.019173548
0.021031126 -0.017070653 -0.019151118
0.023004539 -0.016978962 -0.019178424
0.025037318 -0.017078951 -0.018911749
0.026985139 -0.017136188 -0.019098323
0.028917613 -0.017048225 -0.018969392
0.030961892 -0.017056184 -0.019055182
0.033028301 -0.01708675 -0.019056672
0.034937836 -0.017051166 -0.019101663
0.036906663 -0.017198192 -0.019125706
0.03895105 -0.017112063 -0.019280633
0.040955245 -0.016967805 -0.019036556
0.042988855 -0.01711705 -0.018999225
0.044923145 -0.017014196 -0.018952353
0.047080461 -0.017065424 -0.019075952
0.048984099 -0.017145276 -0.019123713
0.051103547 -0.017157964 -0.018977812
0.052868161 -0.017064106 -0.019107278
0.055018704 -0.016919652 -0.019117765
0.056201965 -0.016774196 -0.018687529
-0.018510569 -0.014922465 -0.018658588
-0.016928574 -0.015050093 -0.019015875
-0.015262429 -0.015000839 -0.019603476
0.015237764 -0.01555481 -0.019272536
0.016772542 -0.015190554 -0.019453093
0.019080352 -0.0153578 -0.019312471
0.020848928 -0.015351878 -0.019528581
0.023108207 -0.015119923 -0.019376015
0.024903962 -0.015238944 -0.019747511
0.026788374 -0.014977998 -0.019593066
0.029062428 -0.015017628 -0.019651342
0.030973267 -0.015179668 -0.019706205
0.032812312 -0.015302213 -0.019465271
0.035062753 -0.015241823 -0.019342721
0.037064537 -0.015277754 -0.01943006
0.039170559 -0.015147348 -0.019404812
0.040763527 -0.015050959 -0.019700397
0.0430797 -0.015013961 -0.01963995
0.045406729 -0.015048931 -0.019707216
0.047027163 -0.015206425 -0.019416977
0.049202342 -0.015457292 -0.019421231
0.050905865 -0.015167916 -0.019567963
0.05287528 -0.015288139 -0.019378953
0.05500057 -0.01488997 -0.019122861
0.056375742 -0.014931361 -0.018920342
-0.018510586 -0.012973772 -0.01863597
-0.014255653 -0.013389111 -0.019118816
-0.015258734 -0.013050424 -0.019606546
0.055268813 -0.013142847 -0.019021844
0.056392651 -0.012961288 -0.018983966
-0.018517187 -0.011051637 -0.018666627
-0.017130336 -0.011731134 -0.019093486
-0.0057440265 -0.012170064 -0.019414078
0.055383582 -0.010939422 -0.019094421
0.05637027 -0.010744395 -0.019242356
-0.018458493 -0.0091383923 -0.018602623
-0.017048305 -0.0091439039 -0.019310484
-0.015532831 -0.019960577 -0.019478116
0.055371553 -0.0090532741 -0.01908239
0.056376565 -0.0088646226 -0.019273696
-0.018527655 -0.0070278388 -0.018402964
-0.017121799 -0.0071658208 -0.019202478
-0.010657517 -0.0032033473 -0.019704806
0.055391744 -0.0070181829 -0.018946534
0.056321952 -0.0069750957 -0.019181328
-0.018536329 -0.0050169332 -0.018595548
-0.017141102 -0.0049067037 -0.019142078
-0.0085409237 0.0073550669 -0.020020358
0.05521062 -0.0051750592 -0.019158
0.056388196 -0.0048763263 -0.019261431
-0.0185524 -0.0030281651 -0.018574111
-0.017161509 -0.0029678021 -0.019096324
-0.015606496 0.0043335133 -0.019726012
0.055316404 -0.0030264733 -0.019081777
0.056383401 -0.0029531885 -0.019133741
-0.018519575 -0.00097920687 -0.018589566
-0.017134318 -0.0011600924 -0.019174151
0.00032306463 0.0033848002 -0.019785903
0.055414654 -0.0011098227 -0.019079108
0.056361418 -0.00099132967 -0.019049248
-0.018549835 0.00088461302 -0.018544927
-0.013670256 0.00099769828 -0.019263206
-0.0057262979 0.0044325995 -0.020515978
0.055401206 0.00085291697 -0.019050408
0.056394838 0.0008581662 -0.019146528
-0.01856536 0.0031127164 -0.018582428
-0.012355737 0.0013879003 -0.01932855
-0.014771312 4.4249697e-05 -0.019858075
0.055346873 0.0029659055 -0.019102333
0.05636996 0.0029209475 -0.019119792
-0.018498436 0.0050976858 -0.018612457
-0.017212763 0.0049362793 -0.019183783
-0.0056873029 -0.002636377 -0.020009786
0.055278476 0.0050675757 -0.019145889
0.056392558 0.0048449575 -0.019257469
-0.018564336 0.0070436257 -0.018444497
-0.017098978 0.0070764879 -0.019199256
-0.014899039 -0.011962201 -0.020291382
0.055393744 0.0070086666 -0.01900558
0.056340069 0.0068893055 -0.019272642
-0.018514296 0.0089861192 -0.018501604
-0.017143684 0.0091986908 -0.01930845
-0.0060036122 -0.017158514 -0.020069918
0.055330377 0.0091092698 -0.019028917
0.056372762 0.0088583361 -0.019192602
-0.018572036 0.01098634 -0.018609108
-0.017201198 0.010887773 -0.019048525
-0.0078093498 0.018786188 -0.021051781
0.055434611 0.011016554 -0.019161575
0.056358781 0.01076297 -0.019179793
-0.01844253 0.013073725 -0.018692736
-0.017033556 0.01305345 -0.019078007
-0.011424401 0.0078651216 -0.020672956
0.055210095 0.013116724 -0.019086238
0.056390326 0.012929769 -0.018988853
-0.018537316 0.014983987 -0.018603912
-0.013691378 0.014957861 -0.019701457
-0.012346863 0.015507869 -0.020622432
0.015140995 0.01538603 -0.019303605
0.022463454 0.014813298 -0.020701114
0.021125665 0.015283297 -0.020316711
0.021105653 0.014925358 -0.020009024
0.020686662 0.014386969 -0.021042561
0.02120867 0.015239617 -0.020500546
0.023793604 0.014866224 -0.020257814
0.018867521 0.015183072 -0.021515287
0.015468352 0.015081154 -0.021497317
0.025112415 0.01524652 -0.020274565
0.017153189 0.015246323 -0.021012077
0.022602627 0.015401317 -0.020100683
0.04570806 0.014125249 -0.020623842
0.044015437 0.014581116 -0.020381555
0.045492213 0.014305792 -0.020602535
0.045444679 0.014299842 -0.020812651
0.04610486 0.014907886 -0.020001167
0.046433236 0.014623873 -0.02031919
0.044877414 0.014198993 -0.020689458
0.049059231 0.015103236 -0.019850584
0.050620828 0.014478966 -0.019715343
0.056368642 0.014899684 -0.018931473
-0.018459059 0.017006628 -0.018731898
-0.014743838 0.016358912 -0.019438555
0.0028001959 0.013882558 -0.021293975
0.01507163 0.017265555 -0.019582555
0.020836517 0.015418608 -0.020286385
0.021434221 0.015341973 -0.020223299
0.02183404 0.016083216 -0.019638656
0.023282846 0.015593767 -0.01998389
0.024002682 0.015611948 -0.019938234
0.026071364 0.016460272 -0.019519795
0.025751967 0.015494721 -0.020031201
0.027137144 0.015705926 -0.019858146
0.029658603 0.016137484 -0.019705215
0.029016143 0.015895007 -0.019920468
0.026945541 0.015588081 -0.020068539
0.032303963 0.016237782 -0.019582534
0.037002526 0.015897876 -0.019530997
0.041956112 0.015447475 -0.019777654
0.045922887 0.015850168 -0.019605281
0.047660489 0.015087292 -0.020117844
0.048335396 0.015239391 -0.020108927
0.049732145 0.016037581 -0.01966314
0.050773349 0.015405027 -0.020018259
0.050711408 0.014945262 -0.020050185
0.05624605 0.016766056 -0.018416259
-0.018523928 0.018970763 -0.018562138
-0.017025763 0.018902168 -0.01920536
0.0024589249 0.011449168 -0.021418637
0.015353754 0.01877537 -0.019132137
0.014776402 0.015315817 -0.020081416
0.018721776 0.018844027 -0.018636871
0.021017116 0.018483795 -0.018592007
0.022832956 0.018697646 -0.018496227
0.024959806 0.01864337 -0.018573184
0.026977185 0.018520255 -0.018795602
0.02898127 0.01852094 -0.018561207
0.030938335 0.018705485 -0.018529445
0.032948151 0.018690679 -0.018379405
0.034950115 0.01857472 -0.018786004
0.037171274 0.018683296 -0.018495152
0.039173491 0.018699326 -0.018382903
0.04076108 0.018561987 -0.018582834
0.043130614 0.018655222 -0.018632483
0.04533447 0.018388674 -0.018810606
0.04687383 0.018516995 -0.018536072
0.048929125 0.018703518 -0.018375408
0.051028389 0.018584117 -0.018597595
0.053155404 0.018631851 -0.018484205
0.054477505 0.018358987 -0.018681003
0.056106567 0.018423602 -0.018188119
-0.018528184 0.021092361 -0.018634627
-0.017156156 0.020925887 -0.019126816
0.0041758614 0.0064335829 -0.021543255
0.020365434 0.012981882 -0.020524547
0.018843096 0.018111257 -0.019660441
0.01879422 0.020982182 -0.018477291
-0.018564375 0.022964478 -0.018514147
-0.017101467 0.023161074 -0.019130711
-0.0091018518 0.017811708 -0.019774443
0.022412706 0.010698989 -0.020398434
0.016993226 0.018444937 -0.019670429
0.018585861 0.023095675 -0.018533135
-0.018620446 0.024889316 -0.018543426
-0.017052045 0.025174823 -0.019001929
-0.0085734446 0.0052638054 -0.021197338
0.0054463232 0.0037274135 -0.021003781
0.0152753 0.021648988 -0.019372625
0.018580828 0.025093487 -0.01845777
-0.018565312 0.027057715 -0.018511556
-0.015338103 0.019032199 -0.019625777
-0.014884491 0.013455738 -0.020299798
0.014506447 0.012436342 -0.019974336
0.015622504 0.017385988 -0.019769736
0.018607073 0.02706877 -0.018416043
-0.018448068 0.02915041 -0.018688299
-0.016086468 0.030098304 -0.019407893
-0.0071201385 0.017638763 -0.021589944
0.0083748642 0.01449161 -0.021138975
0.015624478 0.030052256 -0.01956596
0.01849474 0.028809987 -0.01857293
-0.018474285 0.031045808 -0.018665833
-0.01706282 0.030958196 -0.01899492
-0.0064799353 0.032898348 -0.022583744
0.0090648588 0.032655239 -0.021372631
0.015900755 0.031433616 -0.019786963
0.018579872 0.030745445 -0.01847042
-0.018539421 0.033185266 -0.018577874
-0.017100463 0.033051357 -0.019143626
-0.0089776535 0.02996473 -0.021543762
0.010643274 0.029948607 -0.021014832
