# .PCD v0.7 - Point Cloud Data file format
VERSION 0.7
FIELDS x y z
SIZE 4 4 4
TYPE F F F
COUNT 1 1 1
WIDTH 1293
HEIGHT 1
VIEWPOINT 0 0 0 1 0 0 0
POINTS 1293
DATA ascii
-0.023432743 0.037322368 0.011273009
-0.023852868 0.041674148 0.011888716
-0.02120059 0.051389929 0.013236458
-0.019106131 0.051034182 0.013944583
-0.016726598 0.051307708 0.013946468
-0.015136361 0.051743686 0.013938779
0.015409142 0.051943541 0.013675565
0.017902285 0.051205456 0.013643408
0.019333571 0.051409215 0.013970608
0.021232335 0.050869446 0.013629833
0.018303735 0.039853252 0.012161086
0.021192031 0.044848762 0.012259056
0.023200013 0.043736447 0.012042393
0.028367519 0.050310478 0.012659483
-0.024969282 0.052307226 0.013285591
-0.02215842 0.045541361 0.012319125
-0.017300757 0.045514353 0.011980242
-0.011636272 0.044668976 0.010579028
-0.017022885 0.053260803 0.013663899
-0.014844198 0.053303696 0.013359258
-0.013261219 0.053367149 0.013555752
-0.011400998 0.052803904 0.013921181
-0.0091072172 0.053267539 0.013907755
-0.0066597611 0.053598553 0.01389108
-0.0048005283 0.053851306 0.013878459
0.0053495169 0.053937733 0.013791258
0.0071570575 0.053673267 0.013771767
0.008998394 0.053402662 0.013751918
0.011275694 0.053522378 0.013835484
0.013230748 0.053353533 0.013546901
0.015221158 0.053277861 0.013666746
0.013105601 0.052319158 0.011301834
0.017612487 0.052700032 0.012447388
0.021848187 0.032651078 0.010721411
0.019424861 0.045054864 0.01254218
0.024661027 0.052630872 0.01277972
-0.020952471 0.054177485 0.013316328
-0.019053692 0.054569025 0.013150909
-0.013027432 0.040684517 0.010837774
-0.011159561 0.039588124 0.010644768
-0.011752831 0.044465911 0.012179196
-0.0075643156 0.035061665 0.010211684
-0.0018351758 0.039693035 0.010606549
-0.0067822067 0.055500377 0.013508139
-0.0050057056 0.055524807 0.013578448
-0.0028050547 0.055248134 0.013746007
-0.00081197242 0.055328906 0.013544242
0.00084567204 0.05524081 0.01361471
0.0026969502 0.055144567 0.013728765
0.0048929323 0.055280618 0.013531579
0.010079537 0.051395718 0.010486149
0.0064283153 0.053544119 0.010497177
0.010596506 0.04314198 0.011999193
0.0093536107 0.0412529 0.010904981
0.013273704 0.039929189 0.011045712
0.015359914 0.03537219 0.010253202
0.018758846 0.054492146 0.013161051
-0.014481021 0.056228995 0.013278916
-0.012850666 0.056464314 0.012970099
-0.011072257 0.0565986 0.013009897
-0.009071853 0.056957763 0.013142727
-0.0064326599 0.042792518 0.010574422
-0.0065342728 0.044479612 0.011347372
-0.0055587282 0.042765956 0.011301715
0.0028450382 0.041274067 0.010429396
0.003874958 0.048845068 0.011368116
0.0038880471 0.043441731 0.01122636
0.0052651204 0.043301087 0.011233449
0.0068502664 0.047814034 0.011938618
0.0077677034 0.039783049 0.010910255
0.010787729 0.056307774 0.01341266
0.012708282 0.056328639 0.013004087
0.014077336 0.056038797 0.012766331
-0.00075678033 0.058104038 0.012853265
-0.00035260618 -0.058025777 0.015415072
-0.01472196 -0.056223094 0.014316328
-0.013324305 -0.056516469 0.014986783
-0.010692607 -0.056401692 0.014987995
-0.008822157 -0.056712933 0.014995967
-0.0071015568 -0.05679496 0.014987951
-0.0051799337 -0.057012081 0.01499769
-0.0031965121 -0.056837671 0.015086838
-0.0009048151 -0.057112802 0.015043949
0.0011345901 -0.057114426 0.01494642
0.0030319435 -0.056972709 0.015084581
0.0051066838 -0.056793652 0.01514197
0.0070375982 -0.056840356 0.015007401
0.008907943 -0.056507569 0.015056878
0.010638148 -0.056364641 0.015207643
0.013030097 -0.056428462 0.015191774
0.014004156 -0.056051314 0.014882833
-0.020179488 -0.054324508 0.0143722
-0.019070689 -0.054525506 0.014973857
-0.017091973 -0.054728322 0.015265519
-0.014977871 -0.054936938 0.015200017
-0.012858728 -0.055282805 0.015256246
-0.01088601 -0.055006016 0.015504319
-0.0089057088 -0.055028535 0.015634136
-0.0068758889 -0.055129774 0.015639773
-0.0048236405 -0.054969218 0.015740082
-0.0030211324 -0.054979593 0.015652508
-0.00098234741 -0.055146229 0.015762594
0.00085193856 -0.054852668 0.015678391
0.0029369057 -0.055192567 0.015748216
0.0047207447 -0.054771006 0.015802914
0.0066910605 -0.05504746 0.015757911
0.0088305343 -0.054861177 0.01550058
0.01106096 -0.055232339 0.015212305
0.012746505 -0.055489808 0.015274235
0.015012971 -0.055160377 0.014973498
0.016866332 -0.054780722 0.015193338
0.018598724 -0.054274134 0.015182688
0.020828173 -0.054062843 0.015583485
-0.02475927 -0.052301113 0.014626771
-0.022972947 -0.052553449 0.015138425
-0.021067167 -0.052905351 0.015201313
-0.01893848 -0.05312917 0.015322457
-0.017184554 -0.053271752 0.015519403
-0.01502982 -0.052956335 0.015595415
-0.013078442 -0.053343225 0.015573214
-0.010963033 -0.053543769 0.015641248
-0.009382844 -0.053559363 0.014949644
-0.0076725483 -0.053935349 0.014944876
0.0083473623 -0.053992987 0.015984679
0.01063039 -0.053771101 0.01561228
0.01273529 -0.053558849 0.015796512
0.014709202 -0.053098798 0.015756501
0.016948804 -0.052951302 0.015551554
0.01913695 -0.053236544 0.015147544
0.020951798 -0.053053256 0.015149534
0.022963313 -0.052616213 0.014983111
0.024625778 -0.052262932 0.015192807
-0.028577223 -0.050287597 0.014709018
-0.026827013 -0.050763845 0.014944333
-0.025085989 -0.050877631 0.015240315
-0.023161182 -0.05125523 0.015474095
-0.020959742 -0.051101431 0.01570148
-0.019290857 -0.051304806 0.015579361
-0.017018517 -0.051592492 0.015306836
0.017353177 -0.051668108 0.015984679
0.019478643 -0.051616922 0.015691275
0.021174422 -0.050956797 0.015984649
0.022898395 -0.051205236 0.015333113
0.025103496 -0.051159207 0.014955821
0.026756203 -0.050799944 0.015193398
0.02878806 -0.05042699 0.014505897
-0.030750714 -0.048645064 0.014975345
-0.028979925 -0.048915606 0.014982702
-0.027135381 -0.049130458 0.015355793
-0.0252553 -0.049376056 0.015201145
-0.02340146 -0.049458027 0.015281158
-0.02133739 -0.049864352 0.014975661
0.023829073 -0.049930334 0.015984619
0.024840906 -0.049226414 0.015984638
0.02709336 -0.049010351 0.015331424
0.029202823 -0.049043924 0.015033036
0.030882154 -0.048833862 0.01506028
0.032485574 -0.048468307 0.014326751
-0.034677427 -0.046369176 0.014653635
-0.032859635 -0.046813138 0.015126975
-0.030982036 -0.046980668 0.015144949
-0.029166643 -0.047347952 0.015425513
-0.027236452 -0.047040485 0.014917559
-0.025356233 -0.047715038 0.014978016
0.02786777 -0.04789263 0.015984649
0.028840356 -0.047317803 0.015984651
0.030812925 -0.047157206 0.015302862
0.032963164 -0.046841629 0.014925514
0.034629241 -0.046694025 0.014946371
-0.038366541 -0.044173777 0.014300436
-0.036763977 -0.04462003 0.014711057
-0.035043307 -0.044821996 0.015186684
-0.033009805 -0.045153048 0.015360191
-0.031195665 -0.045131046 0.015075852
-0.029009938 -0.045720242 0.015314057
0.031328753 -0.045332178 0.015666166
0.033230443 -0.044960853 0.015726335
0.035017498 -0.045053963 0.015018238
0.036863022 -0.044534348 0.015061378
-0.040084481 -0.042063117 0.014473617
-0.038585894 -0.042785987 0.014916861
-0.036820404 -0.043051057 0.015310585
-0.035081159 -0.043153122 0.015516794
-0.033256948 -0.043307148 0.014983376
-0.031692505 -0.043595731 0.014976585
0.035022747 -0.043159194 0.015901498
0.037156831 -0.043070987 0.015079136
0.038953707 -0.043008417 0.014637884
0.040377446 -0.042165473 0.014446132
-0.040590107 -0.040953927 0.014942227
-0.038894083 -0.040994186 0.01525172
-0.037076753 -0.041496772 0.015287344
-0.034932911 -0.041115724 0.014973238
0.037038416 -0.041503754 0.015882358
0.038919702 -0.041115124 0.015241819
0.040812481 -0.040846296 0.015095686
0.042008966 -0.040070653 0.014015198
-0.042508248 -0.03853514 0.015106325
-0.041019201 -0.039082319 0.015317947
-0.038919128 -0.039161205 0.015275282
-0.036857963 -0.039339572 0.01496909
0.039417632 -0.039348889 0.015359904
0.041113794 -0.038945012 0.015154294
0.042726174 -0.038849618 0.01503103
-0.044440344 -0.036689222 0.014805062
-0.043066952 -0.036921002 0.015242484
-0.041224182 -0.037269186 0.015194471
-0.03915821 -0.037122041 0.014963487
0.041392472 -0.037273943 0.015644679
0.042983513 -0.037141401 0.015190166
0.044763107 -0.036522824 0.014842065
-0.046543438 -0.034367852 0.014690182
-0.04488343 -0.034959469 0.015263258
-0.043375514 -0.035033237 0.015373734
-0.041395232 -0.035501357 0.015012162
0.043382764 -0.035045706 0.015442383
0.044940315 -0.035015609 0.015019146
0.046625279 -0.034428522 0.014306441
-0.048186794 -0.032823861 0.01424998
-0.046766728 -0.03278153 0.015258666
-0.045282535 -0.033070408 0.015325882
-0.04346035 -0.033072449 0.015046315
0.045105886 -0.03316129 0.015332236
0.0467408 -0.032868568 0.015088436
0.04832932 -0.032827556 0.014605264
-0.050056174 -0.030120194 0.014116943
-0.048446171 -0.031282648 0.015317781
-0.047109976 -0.030991796 0.015164432
-0.045350879 -0.031145174 0.015226131
-0.043869674 -0.031355739 0.014943385
0.047117233 -0.030967733 0.015125424
0.048670825 -0.030924469 0.014830644
-0.050514787 -0.028668284 0.014293313
-0.048996277 -0.028999174 0.015253453
-0.047348242 -0.029193988 0.015257738
-0.045643583 -0.028845936 0.014933402
0.047213577 -0.02949233 0.015311148
0.04889163 -0.028986931 0.015174603
0.050701134 -0.028710982 0.015007054
-0.050694793 -0.026756346 0.015211921
-0.049172923 -0.026893999 0.015292296
-0.047163509 -0.027663251 0.015175945
0.04760915 -0.027685493 0.014137834
0.049240001 -0.02704842 0.015117388
0.050828721 -0.026896743 0.014990993
-0.052550942 -0.024749264 0.014200941
-0.051050685 -0.024975134 0.015242975
-0.049510062 -0.025013832 0.015053927
-0.047645524 -0.025295019 0.01491713
0.049658194 -0.02494606 0.015880104
0.050840557 -0.024881976 0.015110322
0.052543588 -0.024625376 0.014438987
-0.052566256 -0.022835841 0.015074736
-0.051174216 -0.02310103 0.015293093
-0.049331795 -0.023117643 0.014794565
0.051116526 -0.023088776 0.015029524
0.052862473 -0.023016185 0.015011035
-0.054168671 -0.020843394 0.014587611
-0.05294231 -0.020765111 0.015228342
-0.051114414 -0.021280535 0.014829566
-0.049957097 -0.020699799 0.014894808
0.051536366 -0.021194151 0.014837426
0.05305611 -0.020898689 0.015141535
0.054278493 -0.020813674 0.015183846
-0.05446998 -0.019029727 0.015414624
-0.053080183 -0.018914418 0.015245022
-0.051385097 -0.019480463 0.015242066
0.051860213 -0.01944867 0.014437765
0.053176627 -0.018937483 0.01495165
0.054612219 -0.018613709 0.014877317
-0.054832589 -0.016894583 0.015253095
-0.053078678 -0.016970588 0.015058109
-0.051181018 -0.017532051 0.014877791
0.053382531 -0.016947083 0.015033163
0.054735467 -0.01688426 0.014943798
-0.056022078 -0.014266908 0.014626205
-0.054951806 -0.015084422 0.015184456
-0.053245209 -0.014844764 0.015025407
-0.051807165 -0.015910089 0.014869088
0.053525567 -0.014843405 0.014674512
0.054967135 -0.015069422 0.014948458
0.056063831 -0.015140638 0.014164388
-0.056151386 -0.012892187 0.015183656
-0.0550972 -0.012976018 0.015236596
-0.053782344 -0.013166094 0.01510015
0.053485751 -0.013354696 0.014357135
0.055088196 -0.013229088 0.015037751
0.05622505 -0.012472297 0.015318478
-0.056518499 -0.010970438 0.015203712
-0.054848388 -0.010948 0.014914697
-0.053461403 -0.011444601 0.015314437
0.055069569 -0.011069421 0.015091514
0.056816738 -0.011036876 0.014691329
-0.056985401 -0.0090371408 0.01521828
-0.055265032 -0.0090444796 0.014949217
-0.053753227 -0.0092631839 0.015195616
0.055568244 -0.0090098726 0.01516703
0.057017669 -0.0091747455 0.015038841
-0.056850951 -0.0070722876 0.015481589
-0.055201281 -0.0068975817 0.014909283
-0.053876668 -0.0071710348 0.014816517
0.05538211 -0.006956391 0.014911457
0.05702154 -0.0070674191 0.015002104
0.05814743 -0.0060072839 0.015170276
-0.058086216 -0.0049266741 0.014294952
-0.056895453 -0.0051651173 0.015237721
-0.055479176 -0.0048828684 0.015024267
0.05529945 -0.0047040316 0.014558906
0.057093803 -0.0049369503 0.014971171
-0.058273643 -0.0029871464 0.014245808
-0.05697142 -0.0031265714 0.015171551
-0.055331539 -0.0030852247 0.014913352
0.055409249 -0.0027574121 0.0146542
0.056900017 -0.0030523811 0.015180737
0.058000535 -0.0027922243 0.014094472
-0.057059657 -0.00088686193 0.015285993
-0.055368286 -0.00096333574 0.014851131
0.055335611 -0.0013493964 0.014659084
0.057064865 -0.0010435361 0.015157944
0.058225922 -0.00092703104 0.01423955
-0.057079948 0.00092306413 0.015218082
-0.055529699 0.00077441992 0.014936491
0.055926144 0.00054035487 0.014891133
0.057100207 0.00074144156 0.015242008
0.058154792 0.00084494799 0.014270276
-0.058251113 0.0029748678 0.014138341
-0.056949593 0.0031315335 0.01511723
-0.05555696 0.0028673988 0.014908524
0.055316091 0.0026335334 0.014766923
0.056938998 0.0027732938 0.015030847
-0.058128953 0.0042759329 0.014185727
-0.057065807 0.0051566204 0.015226162
-0.055210803 0.0048862807 0.014949371
0.055412568 0.004996703 0.014402268
0.057123907 0.0048061851 0.015168064
0.058127016 0.0053163767 0.015245147
-0.056774542 0.0070539434 0.015350592
-0.055143684 0.0069377008 0.014779878
-0.053998739 0.0076491833 0.014820272
0.055266865 0.0068817609 0.01459229
0.057040375 0.0069511118 0.015132714
-0.056887981 0.0088959513 0.01512566
-0.055213992 0.0091162566 0.014861637
0.055053722 0.0089248586 0.014502828
0.056840785 0.0088404799 0.015150606
-0.056829382 0.01106025 0.015453378
-0.05522278 0.010997197 0.01508758
-0.053794742 0.010903376 0.015206832
0.053848803 0.011286855 0.014845217
0.055131614 0.010952219 0.014740597
0.05679483 0.01102834 0.014937251
-0.056230288 0.013124923 0.014982595
-0.055024602 0.01284794 0.015064226
-0.053643152 0.013299897 0.015086962
0.053507745 0.013569409 0.014494024
0.055138584 0.013074138 0.014934205
0.056790844 0.012941516 0.014955333
-0.056299686 0.014547151 0.015984649
-0.054911263 0.014987169 0.014898217
-0.053174984 0.015083898 0.014868612
0.053222537 0.015204646 0.01457902
0.054912705 0.015052463 0.014970338
0.05635364 0.014721185 0.015388946
-0.05491098 0.016914818 0.015239109
-0.053145204 0.016931225 0.014957057
0.053257614 0.016979335 0.014722449
0.054972447 0.016856164 0.015137425
0.056157887 0.016251147 0.015349925
-0.054779757 0.018552206 0.015506796
-0.053116292 0.018948246 0.015052236
-0.05144909 0.019159187 0.014533265
0.05163179 0.019205585 0.01465892
0.053251255 0.018927664 0.015011448
0.054696027 0.019027676 0.015180854
-0.054194346 0.020842757 0.015106631
-0.052629404 0.020983858 0.015116745
-0.051238965 0.021303039 0.014865077
0.051258679 0.020892961 0.014668091
0.053124025 0.020961363 0.014973181
0.054442316 0.020876668 0.015984634
-0.052849226 0.023272133 0.015348641
-0.05127487 0.023090523 0.014883008
-0.049674436 0.023201518 0.014971298
0.049736291 0.023393929 0.0149126
0.051357094 0.022963056 0.014836008
0.053039316 0.022777097 0.015235724
-0.052293964 0.025055584 0.01538877
-0.050809257 0.024827022 0.014973834
-0.049367633 0.025301199 0.01499448
-0.047804471 0.025449812 0.014726651
0.049349807 0.025074314 0.014677281
0.050908297 0.024744164 0.0148581
0.052502207 0.024981085 0.015170956
-0.05081296 0.026753811 0.015206901
-0.049192801 0.027145928 0.014759627
-0.047847401 0.027256597 0.015086897
0.047870874 0.027614936 0.014629331
0.04899621 0.026995277 0.01490749
0.050606921 0.026827017 0.01516297
0.052333534 0.02602303 0.015433207
-0.050505303 0.028687105 0.015753344
-0.048793644 0.028968591 0.015061012
-0.047409356 0.029264124 0.014659967
-0.045240667 0.029709935 0.014761943
0.04740062 0.029110495 0.01453794
0.049019568 0.029040303 0.01503013
0.050439838 0.028943995 0.015223442
-0.048595667 0.030970203 0.015387247
-0.047064163 0.030974394 0.014967075
-0.045536976 0.031461 0.014801878
0.045533895 0.030957393 0.014754445
0.047202162 0.031029683 0.015047496
0.048969328 0.030785266 0.015224058
-0.048572421 0.032003257 0.015984679
-0.046901748 0.0328747 0.015043199
-0.045258772 0.03315524 0.014959125
-0.043350801 0.033411652 0.014874655
0.04363054 0.033472359 0.014957065
0.045266602 0.033060599 0.014749434
0.047002859 0.032977879 0.015031352
0.048241764 0.032180682 0.01509403
-0.046534002 0.03446281 0.01566232
-0.044859704 0.034811176 0.014972094
-0.043188769 0.035418686 0.014779888
-0.041100021 0.035556734 0.01481038
0.041399479 0.035965145 0.014964903
0.042894013 0.035174146 0.014698494
0.044831287 0.03469944 0.014284452
0.046507202 0.034796096 0.015371865
-0.044534184 0.036949884 0.015343235
-0.04289053 0.03698789 0.014997127
-0.041381776 0.037160475 0.014655784
-0.03936037 0.03756398 0.014827008
0.039922237 0.037587285 0.014969939
0.041220065 0.037229273 0.014589238
0.043030661 0.037009727 0.015027626
0.044865865 0.036724523 0.015244991
-0.042504907 0.038862798 0.01509974
-0.041043695 0.038953673 0.015084515
-0.039418645 0.039418548 0.014663604
-0.037735786 0.03927213 0.014841159
0.037669539 0.039863169 0.014976108
0.039226931 0.039217912 0.014633457
0.041035783 0.039075069 0.014893182
0.04261509 0.038905684 0.015188513
-0.040570743 0.040553927 0.015276045
-0.039081004 0.041023154 0.015051675
-0.037118454 0.041365676 0.014706874
0.035292178 0.041824162 0.014979595
0.037056338 0.041036978 0.014587876
0.032598224 0.022649998 0.012318445
0.03960187 0.036136687 0.013986561
-0.038630739 0.042407904 0.015246317
-0.036921781 0.042978954 0.015111575
-0.035013109 0.043270793 0.014708174
-0.033252951 0.043506444 0.014876236
0.033323228 0.043447018 0.014982441
0.034972526 0.043070085 0.014557147
0.033484966 0.038726702 0.013929957
0.03901469 0.042827792 0.015229247
-0.036591217 0.044369467 0.015364775
-0.035000443 0.044922162 0.01499333
-0.033418726 0.045289524 0.014920885
-0.031537037 0.045466721 0.014627538
0.029551059 0.045924246 0.01498347
0.031042635 0.045299631 0.014729636
0.033041023 0.045014471 0.014573105
0.035263088 0.044964142 0.015196491
0.036751628 0.044487908 0.01534727
-0.034380138 0.046450227 0.015143767
-0.032912921 0.046738997 0.015318627
-0.031147789 0.047126301 0.014892631
-0.029189115 0.04740357 0.014681811
-0.027746122 0.047461838 0.014827379
0.027415082 0.04722932 0.01498335
0.029048141 0.047225583 0.014463978
0.025480537 0.044746459 0.013980874
0.031632461 0.041946139 0.014182709
0.034582779 0.04661119 0.015202094
-0.030694325 0.048543781 0.01512192
-0.028959902 0.048906982 0.015085128
-0.027085075 0.04933092 0.014698916
-0.025341511 0.049389891 0.014990232
-0.023813426 0.049053013 0.014773095
0.022856474 0.049430251 0.014979029
0.025080204 0.049191188 0.014902648
0.020878114 0.043487143 0.0137016
0.027673274 0.041787826 0.013569298
0.02667821 0.040264707 0.013482836
0.032610293 0.048229955 0.015634794
-0.028930783 0.050208867 0.015193596
-0.026684493 0.050726622 0.015318049
-0.024941811 0.051035531 0.015026083
-0.02309083 0.051224504 0.014722179
-0.021150324 0.051385552 0.01487594
-0.019725764 0.05198586 0.014946482
-0.017846286 0.051256359 0.014814639
-0.015385687 0.051965833 0.014830315
0.016962528 0.051615298 0.014968747
0.018915912 0.051102094 0.014872596
0.021365386 0.051072817 0.014922906
0.018906316 0.042219628 0.013748564
0.017104806 0.039434228 0.013171155
0.026976226 0.05078901 0.015121968
0.028785354 0.050386954 0.015422404
-0.024091423 0.052338019 0.01499892
-0.023053709 0.05250952 0.015071439
-0.02103002 0.053025961 0.015043699
-0.016545776 0.046374179 0.01387498
-0.016930692 0.053528626 0.01487562
-0.015160021 0.053661272 0.015221208
-0.01306957 0.052583754 0.014844799
-0.011160582 0.05286026 0.014855022
-0.0092856586 0.053131759 0.014865125
-0.0073750615 0.05346477 0.014875824
-0.0055698454 0.053723693 0.014885509
-0.0031362772 0.053890556 0.014897237
-0.0008649826 0.05393523 0.014907474
0.0012895316 0.053905725 0.014916623
0.0034307241 0.053897262 0.014925892
0.0048118234 0.053864837 0.014931703
0.0066905022 0.053634316 0.014938245
0.0091606975 0.05333069 0.014946843
0.010988444 0.053106606 0.01495325
0.012839804 0.053178787 0.014864715
0.015442455 0.053153358 0.015137114
0.017282268 0.053691205 0.014825265
0.018676613 0.040662408 0.013230658
0.020393517 0.046636149 0.014007539
0.02283641 0.043762524 0.013599634
0.024974948 0.052444171 0.015508076
0.026345178 0.052040815 0.015285313
-0.018596381 0.054503471 0.015149334
-0.016982501 0.054831523 0.015072759
-0.014141463 0.04938595 0.014078
-0.012906467 0.054896705 0.014864955
-0.010756808 0.047660682 0.013818478
-0.0093946429 0.037726395 0.012259847
-0.006857893 0.055691041 0.015047805
-0.0052716513 0.055786002 0.015306612
-0.0037959716 0.055922907 0.015637483
-0.001063019 0.0559282 0.015658449
0.0010550395 0.055921823 0.01560862
0.0033400021 0.055871233 0.015586432
0.0053383559 0.05579678 0.01540336
0.0068467539 0.055675395 0.015091711
0.0090685282 0.055528805 0.014878689
0.0099652251 0.046960235 0.013755763
0.0086703217 0.03962313 0.012139591
0.013146716 0.049685154 0.013320568
0.015382288 0.046136063 0.013752699
0.018900737 0.054657627 0.0152429
0.020612195 0.054578882 0.015754368
-0.014125501 0.056113571 0.015512762
-0.012893501 0.056208711 0.015477392
-0.011007346 0.05669874 0.01539473
-0.0089991493 0.056825459 0.014968935
-0.0071075698 0.056833014 0.015006663
-0.0049580531 0.056972872 0.014973388
-0.0042550191 0.045332048 0.013286561
0.00038030857 0.041873503 0.01262539
0.0012787879 0.049901538 0.01385499
0.003038781 0.041899197 0.012707229
0.0049114106 0.048920542 0.013075641
0.006590642 0.049916927 0.014057502
0.008763968 0.056846242 0.015004754
0.011035695 0.056655645 0.015344041
0.013179688 0.056668755 0.015448555
0.014769557 0.05626788 0.015524842
0.016059464 0.056140125 0.015984649
-0.0033569997 0.058105908 0.015634563
-0.00089072407 0.058262795 0.015740927
0.001481487 0.05824868 0.015862571
0.0033495217 0.058205526 0.015622275
0.0054231337 0.058271497 0.015984649
0.006912326 0.058094978 0.015984649
-0.0034556189 -0.058127344 0.017958794
-0.00098710717 -0.058185875 0.017957825
0.0014796311 -0.058160335 0.017958246
0.0034538261 -0.05814001 0.017958583
0.0049350015 -0.058122218 0.017958878
-0.014039841 -0.056107312 0.017559225
-0.013040362 -0.056442171 0.017095363
-0.010970299 -0.056543432 0.017222803
-0.0089026522 -0.05659464 0.017078973
-0.0069829244 -0.056855544 0.017077347
-0.0051240991 -0.056876492 0.017041981
-0.003003197 -0.056911264 0.016784118
-0.00098692102 -0.056880962 0.016928328
0.00098043203 -0.056947961 0.016709156
0.0031273183 -0.056687992 0.016812146
0.0051453104 -0.056983139 0.016971841
0.0069881706 -0.056728914 0.017002795
0.0087895803 -0.056760788 0.017303716
0.011019504 -0.056626763 0.017371595
0.01320571 -0.056628346 0.017317561
0.014620102 -0.056297928 0.017827213
-0.020821899 -0.054043233 0.016405344
-0.018728046 -0.054274544 0.016822996
-0.016836241 -0.054744404 0.016797429
-0.01501346 -0.055174157 0.01708886
-0.01277262 -0.055358153 0.016793011
-0.011162539 -0.055508383 0.017096048
-0.0090902336 -0.05524721 0.017113961
-0.0070976801 -0.055290859 0.016756987
-0.00484097 -0.054409564 0.017075593
-0.0031729243 -0.055468023 0.016540933
-0.00094521046 -0.054578155 0.017057443
0.00098581612 -0.05519785 0.016676027
0.0033536404 -0.054892104 0.016765155
0.0050535304 -0.055199504 0.016645603
0.0069052726 -0.055450946 0.016585426
0.0090591749 -0.055606902 0.016537532
0.01088539 -0.055209894 0.016652528
0.012904393 -0.055295669 0.016764158
0.014894318 -0.054818004 0.016960997
0.016971607 -0.054831736 0.016730454
0.019062914 -0.05451677 0.017013155
0.020165741 -0.05431886 0.01760488
-0.024574399 -0.052246824 0.01679372
-0.022959452 -0.052622616 0.017003153
-0.02099623 -0.053104986 0.0169209
-0.019252699 -0.053175393 0.017220287
-0.017378313 -0.053166021 0.017171128
-0.014876112 -0.053202495 0.01740792
-0.0121122 -0.053436577 0.017114157
-0.0099966526 -0.053919315 0.017101491
0.0075810254 -0.053833544 0.017025525
0.0093311965 -0.053501219 0.017020294
0.011065632 -0.053171873 0.017015064
0.012750819 -0.052809685 0.017010266
0.014883921 -0.053429153 0.017063621
0.017137278 -0.053452514 0.016890747
0.019036584 -0.053099196 0.016890494
0.021049773 -0.052838121 0.016875362
0.022973189 -0.052663088 0.016990442
0.024587814 -0.052280735 0.017224977
-0.028724099 -0.050370354 0.017393958
-0.026808606 -0.050914362 0.016632605
-0.025120294 -0.051197834 0.017024038
-0.023054797 -0.051234625 0.017153807
-0.021551013 -0.051057942 0.017792568
-0.019383013 -0.051528376 0.017716533
0.015337944 -0.051974118 0.017004872
0.016862094 -0.051458746 0.017001877
0.018880695 -0.050775617 0.016997898
0.021150883 -0.051356208 0.017061826
0.022997057 -0.051364705 0.016771354
0.025043335 -0.0508097 0.016862607
0.026883611 -0.050798777 0.017030932
0.028585054 -0.050275318 0.017272193
-0.032376584 -0.04836034 0.017459702
-0.03077665 -0.049026486 0.017075669
-0.029100314 -0.048946124 0.017057639
-0.027079493 -0.049234375 0.017251169
-0.024956476 -0.049219392 0.017939216
-0.023702383 -0.049744666 0.017983729
0.021255285 -0.049750924 0.016994769
0.022964284 -0.04912011 0.017061422
0.025252849 -0.04969392 0.017232031
0.02713215 -0.049273685 0.016816892
0.028936775 -0.048906289 0.016964536
0.030750062 -0.04866254 0.017041245
-0.034668781 -0.046525896 0.017051509
-0.033047657 -0.046852473 0.017064983
-0.030953635 -0.047379389 0.017152762
-0.028897785 -0.046838716 0.01793718
-0.027180791 -0.047763348 0.017981345
0.025348574 -0.047705352 0.016991356
0.027230065 -0.04701668 0.017057788
0.029047783 -0.047485933 0.017033689
0.03100545 -0.046975423 0.017003071
0.032881886 -0.046826817 0.016837912
0.034672718 -0.046368208 0.017316749
-0.036910046 -0.044539277 0.016944569
-0.035074964 -0.044915505 0.017055778
-0.032938648 -0.045023549 0.017289897
-0.030997247 -0.045392454 0.017981539
0.028773338 -0.045586497 0.016991371
0.03121887 -0.044918753 0.017137801
0.03298334 -0.045239426 0.017035762
0.034984477 -0.044786844 0.016862493
0.036570046 -0.044724405 0.017256407
0.038359731 -0.044139624 0.017699957
-0.040408917 -0.042198032 0.01755476
-0.038980711 -0.042899575 0.017314333
-0.037113037 -0.04305964 0.017118201
-0.034852326 -0.043167673 0.017085118
-0.033357263 -0.043479949 0.017987931
0.031712294 -0.043632329 0.016992385
0.033254795 -0.043319993 0.016978264
0.035219505 -0.043070253 0.017209662
0.036900014 -0.043083869 0.016742719
0.038575336 -0.042772658 0.017068056
0.040082738 -0.042059362 0.017499089
-0.042011261 -0.040079832 0.01796183
-0.040955629 -0.040884957 0.017078198
-0.039238889 -0.040960051 0.017053995
-0.036756285 -0.041358728 0.017248377
-0.035325766 -0.04185915 0.017993623
0.034919571 -0.041093212 0.016996279
0.037070733 -0.041435398 0.017199187
0.038913913 -0.040992811 0.016892202
0.040710278 -0.04094271 0.017068628
-0.042760108 -0.038848497 0.017139005
-0.041141953 -0.038965315 0.017108966
-0.039311081 -0.03927774 0.017273344
0.036865041 -0.039355904 0.017000059
0.038920537 -0.039253838 0.017248426
0.041145235 -0.039056722 0.016880935
0.042669602 -0.038523503 0.016934473
-0.04487266 -0.036560357 0.01714175
-0.042920642 -0.037318461 0.017151156
-0.041364592 -0.037018217 0.017210584
0.039163217 -0.037135303 0.017005676
0.040979724 -0.037360933 0.017190196
0.043129388 -0.036982842 0.016840106
0.044652604 -0.036682598 0.017235704
-0.046435989 -0.034822613 0.017569926
-0.044971015 -0.034903374 0.017225614
-0.043366458 -0.035278402 0.017154349
0.04138492 -0.035498589 0.016957795
0.043081902 -0.035238519 0.016904732
0.044878297 -0.03500798 0.016732365
0.046546705 -0.034363981 0.017289657
-0.048350811 -0.032708064 0.017223172
-0.046820641 -0.032912981 0.017005149
-0.045100048 -0.033029638 0.017170452
0.043460168 -0.033067849 0.016929917
0.045182034 -0.033017457 0.017029017
0.046758503 -0.032817278 0.016823683
0.048182562 -0.032772601 0.017761201
-0.048881575 -0.030693173 0.017486265
-0.047257036 -0.03092148 0.017107623
-0.045672387 -0.030889068 0.017791957
0.043874234 -0.031369686 0.017025823
0.045303572 -0.030976182 0.016714437
0.047135808 -0.030993579 0.016972234
0.048523728 -0.031194136 0.016862443
0.050054595 -0.030110419 0.017860204
-0.050450701 -0.028847862 0.016839867
-0.048944939 -0.029007116 0.017154915
-0.047425091 -0.029212307 0.017796203
0.045638874 -0.028836399 0.017035956
0.047171064 -0.029162467 0.016927494
0.04902551 -0.028890843 0.016909551
0.050772645 -0.028531767 0.017585173
-0.050849169 -0.026958099 0.0172043
-0.049217001 -0.027073938 0.017021863
-0.047522724 -0.027723126 0.017852686
0.047150902 -0.027676042 0.016795581
0.0490853 -0.026940374 0.016867111
0.050676525 -0.026787942 0.016917868
-0.052430954 -0.024564039 0.017450377
-0.050822228 -0.025021903 0.017254602
-0.049490184 -0.025049426 0.017456643
0.047335058 -0.025976956 0.017048741
0.049358964 -0.024914673 0.01699324
0.050981387 -0.025062924 0.016875535
0.052435871 -0.024692869 0.017489029
-0.052953541 -0.022970557 0.017229067
-0.051149022 -0.023010999 0.017204745
0.049032688 -0.022920281 0.017062867
0.051076125 -0.023173163 0.016881162
0.052592922 -0.022746792 0.017081439
-0.054284673 -0.020817529 0.016799396
-0.052992038 -0.021032531 0.017220408
-0.051256873 -0.021163696 0.017208185
0.049964041 -0.020724535 0.017074281
0.051115971 -0.021282861 0.017143467
0.052827008 -0.020668797 0.017037408
0.054166809 -0.020842709 0.01738447
-0.054692995 -0.018525098 0.01737706
-0.053193681 -0.018895291 0.017188122
-0.051879585 -0.019445028 0.017548591
0.051421326 -0.019507736 0.016735341
0.053116284 -0.018804137 0.016825838
0.054507155 -0.019204121 0.016740751
-0.054681178 -0.016937196 0.017268797
-0.053028505 -0.016757663 0.01734446
0.05153802 -0.016867459 0.017094636
0.053010806 -0.016885595 0.017023241
0.054649502 -0.01686362 0.016792959
-0.056080788 -0.015106693 0.017873704
-0.054988854 -0.015102956 0.017298063
-0.053589925 -0.014976609 0.017316263
0.053241462 -0.014846371 0.016943213
0.054911923 -0.01509702 0.016952787
0.056020617 -0.01426661 0.017344177
-0.056268018 -0.012424896 0.017106025
-0.05520387 -0.013225916 0.017097741
-0.053518176 -0.0133503 0.017641753
0.053754356 -0.013155467 0.01685195
0.055064615 -0.012931237 0.016824221
0.0561621 -0.013074338 0.017196119
-0.056787029 -0.010930602 0.01746569
-0.055145681 -0.011002107 0.017019935
-0.053669035 -0.011194512 0.017784476
0.053495467 -0.011488474 0.01667567
0.054937307 -0.010948859 0.017107992
0.056531273 -0.01098803 0.016945994
-0.056878898 -0.0091113038 0.017255431
-0.055495486 -0.0089525776 0.017048117
-0.053818882 -0.0090455506 0.017926335
0.053725056 -0.0090819336 0.016911838
0.055321932 -0.0089193042 0.017173244
0.057032093 -0.0088755861 0.017034505
-0.058040321 -0.00728333 0.016853258
-0.056952454 -0.0070075667 0.017304156
-0.055499025 -0.0068721185 0.017212247
0.053869843 -0.0071502328 0.01715293
0.055244412 -0.0069094887 0.017124176
0.05675067 -0.0068870597 0.016827447
-0.057002369 -0.0039690994 0.016972199
-0.05542253 -0.0047439048 0.017307721
0.055366423 -0.0047960123 0.016979387
0.056713294 -0.0048696795 0.017100384
0.058081567 -0.0049208403 0.017690927
-0.058000207 -0.0027896613 0.017867923
-0.056857321 -0.0029405218 0.017085208
-0.055345573 -0.0026608594 0.017296977
0.055512391 -0.0029768916 0.017079543
0.056759641 -0.0030293961 0.017102972
0.058260888 -0.002967447 0.017778635
-0.058180109 -0.00086153299 0.017811269
-0.057122514 -0.0011770737 0.017206866
-0.055496126 -0.0010432192 0.017379031
0.055243958 -0.00083916914 0.017160995
0.056716993 -0.0010640158 0.017125977
-0.058168426 0.00086703897 0.017757028
-0.051945869 -0.0028729644 0.016842285
-0.055404194 0.00081674306 0.017337894
0.05558281 0.00068633165 0.017031992
0.056840714 0.00090684002 0.017104961
-0.051667586 0.0061093792 0.016726503
-0.055338074 0.0026275245 0.017284898
0.055610716 0.0027347207 0.017024156
0.056757323 0.0029588777 0.017215779
0.058251858 0.0029780716 0.017821968
-0.058131218 0.0053194165 0.016726032
-0.050192419 0.0074067791 0.016477503
-0.055537164 0.0049408083 0.017469142
0.055317752 0.0046930546 0.017216478
0.056904443 0.0050838399 0.017043956
0.058119148 0.0042616576 0.017824769
-0.056902654 0.006206932 0.016810726
-0.055300672 0.0068839975 0.017401386
-0.053813934 0.0074732639 0.017921627
0.053989857 0.0076206326 0.017149294
0.055190373 0.006874261 0.017256323
0.056753732 0.0070153386 0.016841514
-0.04983988 0.0060454118 0.016760131
-0.055145331 0.0089826975 0.017376676
-0.053686947 0.0090841725 0.017801508
0.055218574 0.0091140959 0.017113321
0.056819171 0.0087986933 0.017212082
-0.056706 0.010856329 0.017255992
-0.047339272 0.0047963555 0.016708987
-0.053633463 0.011273693 0.017468451
0.053826988 0.010948515 0.016781606
0.055044901 0.011027375 0.017011901
0.056659132 0.010827377 0.01699375
-0.056758851 0.012843043 0.017019918
-0.050171487 0.017953228 0.016237803
-0.053361356 0.013488988 0.017356096
0.053698882 0.013386564 0.01690978
0.055032738 0.012868253 0.017005233
0.056186579 0.012970259 0.016931251
-0.05638691 0.014781091 0.016911108
-0.047528025 0.015915887 0.016525783
-0.022303274 0.022887543 0.014705438
0.053176459 0.015079592 0.017103272
0.054914016 0.01499506 0.017152414
-0.056216955 0.016299218 0.016655281
-0.055187117 0.015202831 0.016532389
-0.053520303 0.015287191 0.0165365
-0.05189538 0.01730627 0.017563343
0.053153794 0.016928351 0.017019179
0.054808766 0.016953956 0.017123343
-0.053320501 0.011845542 0.015987799
-0.04135526 0.011039223 0.01605437
-0.05151486 0.018939082 0.017449165
0.051483765 0.01920446 0.017453546
0.053108819 0.018968109 0.016987616
0.054587577 0.018411819 0.017098639
-0.054006904 0.021581039 0.017469347
-0.049410559 0.023492126 0.01651386
-0.043421265 0.017665794 0.015659845
0.051250495 0.021320403 0.017121363
0.052743733 0.021014944 0.017113805
0.0541493 0.020182967 0.017710447
-0.046626218 0.024817884 0.016428644
-0.043718617 0.025173334 0.016427809
-0.049543113 0.023490738 0.017609669
0.049678743 0.023212384 0.016999509
0.051178318 0.023083068 0.017277803
0.052586336 0.02334339 0.01687918
-0.036544584 0.026313117 0.015518969
-0.04396018 0.024371833 0.015670404
-0.037090793 0.025972856 0.01596918
0.049450278 0.025176695 0.017032409
0.050797082 0.024831269 0.017071093
0.052290164 0.025175914 0.016901284
-0.052363038 0.026042521 0.016552955
-0.050746888 0.02345999 0.016362138
-0.041428499 0.022303974 0.015654661
-0.047422331 0.027507696 0.017590873
0.047838256 0.027627792 0.016897317
0.049062494 0.02704397 0.017280309
0.05073848 0.026714854 0.016934294
-0.050349839 0.028981496 0.017052267
-0.038026739 0.019067869 0.016009912
-0.034217026 0.019590074 0.015801292
-0.045698881 0.02922136 0.017815143
0.04729848 0.029254066 0.017277557
0.048803892 0.02901065 0.017144071
0.050168753 0.028391272 0.016711757
-0.048721045 0.030897638 0.017163265
-0.04240191 0.026366094 0.015364708
-0.038055703 0.020951008 0.0142381
-0.043845236 0.031849694 0.017685801
0.045564976 0.031494677 0.017170999
0.047022365 0.03094792 0.017125472
0.048517987 0.030887453 0.016760413
-0.048135363 0.032279119 0.017351508
-0.045660987 0.034305133 0.016237479
-0.042589284 0.03445008 0.015578654
-0.043509334 0.033508461 0.017206736
0.043779731 0.033827782 0.017009074
0.044965845 0.033154245 0.017225683
0.046700493 0.032940034 0.017161477
-0.046566859 0.034903977 0.01690118
-0.031575508 0.032017983 0.01552713
-0.029508697 0.030184681 0.013456272
-0.04147701 0.035450775 0.0175968
0.043255959 0.03540159 0.01726459
0.044940516 0.034718644 0.017173834
0.046529017 0.034398854 0.016498715
-0.044715118 0.036821611 0.017162872
-0.037332397 0.02974969 0.015676597
-0.027902786 0.02938004 0.015393989
-0.039902091 0.03748481 0.017152246
0.041395415 0.037177842 0.017318413
0.042784065 0.03694636 0.017249331
0.044409957 0.037027773 0.016889906
-0.034372386 0.031129554 0.015934398
-0.034922548 0.028155984 0.015697777
-0.032226108 0.022236997 0.014837243
-0.037707269 0.039936364 0.016992504
0.039400667 0.03939455 0.017357372
0.040865157 0.038943402 0.017147355
0.042375743 0.038650863 0.016905207
-0.037197646 0.032672696 0.01619833
-0.030294392 0.027469991 0.014786805
-0.029502515 0.024777632 0.015322833
-0.03554754 0.041899979 0.016985174
0.037222814 0.041393921 0.017330039
0.03900459 0.040974062 0.017188132
0.04077825 0.040497776 0.016989646
-0.035215151 0.043862369 0.015779683
-0.020527322 0.039949834 0.012590813
-0.030111546 0.041043084 0.014288686
-0.032338627 0.042347055 0.012290368
0.035043281 0.043351233 0.017282613
0.036882497 0.04298269 0.017238727
0.038631842 0.042464521 0.016945686
-0.036591709 0.044408277 0.017165229
-0.029716333 0.043657172 0.016071662
-0.02128423 0.039475359 0.013871129
-0.032928936 0.043597106 0.015818032
-0.028727204 0.045535535 0.017999658
0.028774261 0.045614243 0.017998109
0.031243658 0.045145806 0.017711271
0.03331935 0.045271467 0.017255031
0.03493179 0.044958025 0.017264474
0.036703385 0.044403762 0.016952593
-0.034580167 0.046609093 0.016931012
-0.03520567 0.041057501 0.015481398
-0.023171097 0.036024023 0.014205123
-0.001197095 0.032254778 0.012604496
-0.031596519 0.039841939 0.015262447
-0.025301978 0.047658622 0.017999569
0.025305137 0.047665358 0.017999405
0.027352553 0.046800118 0.017741486
0.029194891 0.047581721 0.017217606
0.031063179 0.047033366 0.017278641
0.032916687 0.046857595 0.016999247
0.034444213 0.04647553 0.016857803
-0.032944754 0.048154026 0.016547635
-0.022455385 0.041570183 0.01564895
-0.020399408 0.032186028 0.014138281
-0.021053439 0.028767264 0.013478307
-0.012606418 0.013870884 0.01080955
-0.028203223 0.024556985 0.013134968
0.023881763 0.048992991 0.017196948
0.025555372 0.049438953 0.01727316
0.027055698 0.049303088 0.017376143
0.028892154 0.048931971 0.017311439
0.030697396 0.048550546 0.016861394
-0.028715551 0.050299309 0.016922694
-0.027104478 0.050759822 0.017191246
-0.01759392 0.031684548 0.01423486
-0.020076076 0.024775064 0.012900452
-0.015325148 0.030294478 0.014094912
-0.022665331 0.011761161 0.011163135
-0.016949724 0.051793784 0.016982105
0.015364945 0.051983476 0.017138744
0.017955512 0.051158011 0.017155821
0.021296872 0.051514376 0.017364413
0.023046426 0.051292054 0.017460715
0.024889302 0.050918356 0.017226974
0.026736179 0.0507381 0.016983343
0.028994501 0.050230712 0.016806275
-0.026360974 0.052087784 0.016729265
-0.02481278 0.052473459 0.016729601
-0.020859109 0.036287781 0.014982975
-0.019329898 0.038660035 0.01509459
-0.012809116 0.021761697 0.012782679
-0.01314072 0.029256685 0.014280134
-0.0079855397 0.013616796 0.011837895
-0.0047342805 0.0066745714 0.011074122
-0.0053492263 0.016728962 0.012655076
0.00039559533 -0.0016332911 0.0099762194
0.0035281493 -0.0013437336 0.010306611
-0.0047976673 0.053848147 0.017037803
-0.002795428 0.053979337 0.017045597
-0.00058549643 0.053923309 0.017055595
0.00088047981 0.053918183 0.017062003
0.0031477362 0.053877831 0.01707218
0.0055814981 0.053711236 0.017083997
0.0073249042 0.053511858 0.017092967
0.0092641115 0.053151131 0.017103964
0.011260599 0.052765965 0.017115319
0.013242841 0.052423596 0.017126435
0.015440822 0.053743839 0.016992146
0.017003447 0.053525954 0.017448986
0.018896949 0.044195175 0.016145457
0.020965505 0.052964229 0.017218599
0.023063919 0.052562263 0.017149424
0.024104826 0.052345902 0.016980015
-0.020152956 0.054654837 0.01669842
-0.018936599 0.054501392 0.017079359
-0.013310323 0.047350999 0.014838547
-0.010868191 0.04958747 0.014713341
-0.010836726 0.04194475 0.012786277
-0.011389797 0.051722545 0.014536379
-0.010741724 0.044691313 0.01253534
-0.0080085965 0.042606067 0.010542311
-0.0092051737 0.040991005 0.012536231
0.00057985855 0.038989387 0.0088710375
0.00049290154 0.045360163 0.011905299
0.0011278391 0.055599481 0.016885012
0.0054831058 0.05584988 0.017191689
0.0069785938 0.055763185 0.017336514
0.0061393594 0.052232489 0.015542451
0.0083754184 0.05245937 0.015761966
0.012891189 0.055128429 0.017389975
0.013722 0.054966249 0.016355708
0.016987044 0.054573566 0.017176872
0.018508464 0.054483127 0.017154349
-0.014649704 0.056168258 0.016677454
-0.013049342 0.056528255 0.016794462
-0.010871696 0.056578822 0.016917376
-0.0086198784 0.056696635 0.017093603
-0.0050216625 0.050722886 0.015609972
-0.0044633606 0.048137486 0.015233275
-0.0012819396 0.050208472 0.014913108
-6.2850304e-06 0.050315477 0.015116081
0.0015399585 0.052925322 0.016083058
0.0030681379 0.050747011 0.0151753
0.0049293847 0.056784768 0.017247807
0.006935372 0.056690775 0.017209504
0.0087760827 0.056613665 0.017260678
0.01084369 0.056666713 0.016783636
0.012844086 0.056148797 0.016778596
0.014204755 0.056174576 0.016959846
-0.0040788203 0.058033884 0.016492903
-0.0031175315 0.058050096 0.017121404
-0.0015043616 0.058173597 0.016375989
0.0031565577 0.058012068 0.01703167
-0.0013926029 -0.058067799 0.018236935
0.00051146746 -0.058110654 0.01884082
-0.014901862 -0.0560745 0.018222243
-0.01317412 -0.056425512 0.018542066
-0.010982422 -0.056591343 0.018697001
-0.0087666837 -0.05651395 0.018863246
-0.0070259701 -0.056804996 0.018653668
-0.0049427473 -0.056545753 0.018961256
-0.0028901594 -0.056713451 0.018853663
-0.00096016208 -0.056703772 0.018976998
0.0011577539 -0.056687564 0.018900558
0.0028573279 -0.056724351 0.018986985
0.0049649454 -0.056558754 0.018890247
0.0070262076 -0.056703281 0.019003008
0.0090870857 -0.056483649 0.019115034
0.011424616 -0.056424432 0.019007694
0.012989536 -0.056114793 0.018889263
0.014124513 -0.056316733 0.019009888
-0.020417238 -0.054052055 0.018026315
-0.018741664 -0.054502912 0.018384617
-0.016952021 -0.054824542 0.018602261
-0.015073777 -0.054767873 0.018922657
-0.012962343 -0.054918189 0.019086683
-0.010880523 -0.055014756 0.019080639
-0.008986718 -0.054978009 0.019166021
-0.0070049707 -0.055291109 0.019224424
-0.0051100822 -0.055131096 0.019164482
-0.003029346 -0.055170234 0.01917918
-0.00078232534 -0.055178173 0.019216597
0.0009841104 -0.055147484 0.019112768
0.0029542765 -0.055127393 0.019108873
0.005081533 -0.055109486 0.019127205
0.007010242 -0.055376489 0.018937409
0.0089896014 -0.055236578 0.019114599
0.010880603 -0.055055831 0.0191101
0.01286647 -0.054888427 0.019152101
0.014892304 -0.054796804 0.019182028
0.01687149 -0.054703563 0.018956214
0.018535018 -0.054573473 0.018774886
0.020879706 -0.054334193 0.018021639
-0.024679927 -0.05224257 0.018250391
-0.022997968 -0.052817147 0.018391922
-0.021023145 -0.052882217 0.018752851
-0.018997831 -0.052778631 0.0191564
-0.017023161 -0.052980654 0.019183142
-0.014921281 -0.053074975 0.019011531
-0.013095155 -0.053220201 0.019126955
-0.011418105 -0.053412564 0.019011874
-0.0091251228 -0.053608865 0.01923166
-0.0071833255 -0.053669468 0.019108143
-0.0053367512 -0.05378858 0.019171897
-0.002699852 -0.053850979 0.019170875
-0.00056505203 -0.053875983 0.019198233
0.0009367764 -0.053834498 0.019218737
0.0032283068 -0.053771049 0.01925003
0.0058107851 -0.053803951 0.0192555
0.0073416559 -0.053636909 0.019230273
0.0092359744 -0.053433686 0.019229827
0.011216902 -0.053471804 0.01912635
0.013455127 -0.053283539 0.019175392
0.015224061 -0.053255651 0.019006127
0.016982295 -0.053208008 0.019133804
0.019058688 -0.053052671 0.019249018
0.021031132 -0.05294542 0.019217098
0.023177152 -0.052651785 0.018842576
0.02502368 -0.052253902 0.018599391
-0.028578132 -0.050161958 0.018297583
-0.026777137 -0.050835181 0.01842168
-0.024935348 -0.050762113 0.018892271
-0.022874225 -0.051022734 0.019104509
-0.021098901 -0.051131587 0.019174784
-0.018780045 -0.051198125 0.019233191
-0.016729122 -0.051460158 0.01892389
-0.015384612 -0.051729649 0.019374173
0.015043905 -0.051676825 0.01949662
0.016476948 -0.05146201 0.019364383
0.018877273 -0.051144581 0.019384116
0.021198597 -0.051321693 0.019210692
0.022810183 -0.050983503 0.019197851
0.024908314 -0.050704908 0.019203374
0.026832871 -0.050898865 0.019104932
0.028612841 -0.050491452 0.018585667
-0.030891443 -0.04855343 0.018433956
-0.029053066 -0.048970554 0.01871708
-0.02698485 -0.049008839 0.019087426
-0.025073145 -0.049095549 0.019326631
-0.023324218 -0.049313761 0.019160215
-0.020612374 -0.049719125 0.019024188
0.021839608 -0.049241796 0.019542914
0.023018021 -0.049464658 0.019459024
0.024986388 -0.04904671 0.019375373
0.027200822 -0.049304649 0.019208224
0.02898884 -0.049004599 0.019096486
0.030988807 -0.048584271 0.019088885
0.032110039 -0.048074365 0.018125357
-0.032822248 -0.046820596 0.018468143
-0.03081375 -0.047066092 0.019067705
-0.028991139 -0.047043692 0.01920566
-0.027283913 -0.047434624 0.019173173
-0.025275318 -0.047778849 0.019140851
0.025642967 -0.04796806 0.019292951
0.026928712 -0.047420368 0.019566391
0.029008508 -0.047332287 0.019282147
0.030827081 -0.047096301 0.019282883
0.032739162 -0.046689298 0.019049559
0.034715965 -0.046459556 0.018678822
-0.036790788 -0.04458138 0.01832778
-0.034739256 -0.045052622 0.018746795
-0.03288665 -0.044802569 0.019070406
-0.031118002 -0.045245051 0.019070687
-0.02908494 -0.045613635 0.018942818
0.029265489 -0.045550298 0.019740572
0.030999711 -0.045085508 0.01972237
0.033049364 -0.045058746 0.019284859
0.035134304 -0.044848353 0.019219419
0.03648486 -0.044476271 0.019056849
0.038039267 -0.04401198 0.018103287
-0.038668394 -0.042533338 0.018526411
-0.036864594 -0.04306113 0.018678211
-0.03490556 -0.043067344 0.019180721
-0.033396062 -0.043199118 0.018987203
-0.031733319 -0.043737527 0.018715616
0.033177566 -0.04316036 0.019743105
0.035117865 -0.043237619 0.019102547
0.03698026 -0.043102816 0.01910474
0.038770795 -0.042430531 0.019056035
-0.040513441 -0.040826347 0.018412337
-0.038879968 -0.041128919 0.018766228
-0.037088502 -0.040978223 0.019080067
-0.035183065 -0.041505098 0.01885145
0.03361747 -0.041802794 0.01969862
0.035165362 -0.041233286 0.019616693
0.036970329 -0.041281737 0.01918136
0.03912108 -0.04097395 0.019166922
0.040554132 -0.040618639 0.019048179
-0.042815607 -0.038766347 0.018331658
-0.04095982 -0.039086927 0.018694039
-0.038904335 -0.03914202 0.019020209
-0.03735448 -0.039305575 0.018844346
0.037209742 -0.03939743 0.019659769
0.038992323 -0.039037041 0.01957784
0.041048985 -0.039011002 0.019158591
0.042749446 -0.038713142 0.018683121
-0.044419359 -0.03665432 0.018404996
-0.042801786 -0.03700741 0.018652121
-0.040960222 -0.037107572 0.019124836
-0.039430447 -0.037337746 0.018868402
0.037835065 -0.03793332 0.019808948
0.039263401 -0.037162051 0.019520611
0.041104481 -0.037178159 0.019060006
0.042920567 -0.036978334 0.01914769
0.044620842 -0.036506351 0.019061409
-0.046803594 -0.034459189 0.018135011
-0.045240343 -0.034677178 0.018577626
-0.0429882 -0.035027567 0.019041725
-0.041251916 -0.03539877 0.018843889
0.041037947 -0.035338387 0.019792244
0.043108489 -0.035127077 0.019033924
0.044989031 -0.035134152 0.019036243
0.046079785 -0.034946933 0.01877559
-0.048201025 -0.032240331 0.018202782
-0.046665885 -0.032632701 0.018565305
-0.044879567 -0.033033941 0.018945672
-0.043310545 -0.033309672 0.018861495
0.043101575 -0.03301955 0.019558435
0.045181409 -0.033057172 0.018910104
0.046759047 -0.032974295 0.019164337
0.048206776 -0.032518685 0.018780299
-0.048705988 -0.030443337 0.018361177
-0.046750393 -0.03073596 0.018928027
-0.045221731 -0.031203538 0.018815687
-0.04390192 -0.031486548 0.019170906
0.04391757 -0.031125516 0.019685268
0.045500599 -0.031135544 0.019136256
0.046956379 -0.030906338 0.018987134
0.048498414 -0.031088619 0.018987153
-0.048890579 -0.028998127 0.018574907
-0.047047134 -0.029133502 0.018908869
-0.045607075 -0.029086359 0.018918032
0.045556236 -0.028995156 0.019595265
0.047068663 -0.028980276 0.019149181
0.048994746 -0.029174328 0.019064402
0.050779268 -0.028480345 0.01877019
-0.050588682 -0.027045226 0.018420046
-0.048689377 -0.027058762 0.018851316
-0.047176499 -0.027371194 0.018817469
0.04753761 -0.02715997 0.019600838
0.049016979 -0.027211253 0.018793045
0.050902333 -0.02664477 0.018768184
-0.052277029 -0.024828887 0.018309196
-0.050924532 -0.024818322 0.018612331
-0.049170777 -0.025022762 0.018963199
-0.047717489 -0.02528125 0.01906861
0.047359858 -0.025520742 0.019763708
0.049426578 -0.025129288 0.01869357
0.051144995 -0.025006596 0.018927351
0.05222249 -0.024669623 0.01909296
-0.052855089 -0.0227453 0.018281385
-0.050875947 -0.022824159 0.018907756
-0.049310643 -0.023167918 0.018776948
0.049452238 -0.023373354 0.019617856
0.051196203 -0.022902882 0.018900622
0.052865162 -0.022909129 0.019050457
-0.053069845 -0.020778831 0.018435188
-0.051199105 -0.021144649 0.018869575
-0.049755976 -0.021128476 0.018909652
0.049361054 -0.021176726 0.019819081
0.051209457 -0.021113077 0.019344395
0.052848652 -0.021113809 0.01901488
0.05435444 -0.020914076 0.018815998
-0.05411303 -0.019401129 0.018275302
-0.052750699 -0.018915446 0.018739995
-0.051322311 -0.019019032 0.01896408
